ply
format ascii 1.0
element vertex 760
comment vertices
property float x
property float y
property float z
end_header
-6.99009227752685547 -1.17362070083618164 0.163839608430862427
-10.2810955047607422 -1.59971213340759277 0.276115119457244873
-3.19439888000488281 -1.14300692081451416 1.47979795932769775
-10.8739614486694336 3.80892705917358398 1.11529934406280518
-2.25413298606872559 1.62897336483001709 -0.858929038047790527
-8.29384803771972656 -1.52956914901733398 1.18988597393035889
-2.00329160690307617 0.538337230682373047 -0.141119107604026794
-1.48578143119812012 -1.14966702461242676 0.083467826247215271
-11.1254072189331055 1.2915961742401123 1.56113553047180176
-10.7623558044433594 -1.0833967924118042 0.984481096267700195
-6.19471979141235352 -1.36233937740325928 1.32617700099945068
-2.20946574211120605 0.431465595960617065 -0.737776637077331543
-4.05171060562133789 1.70584714412689209 -0.794997692108154297
-8.63276863098144531 -0.736040711402893066 -0.948933601379394531
-6.80528831481933594 -0.23476921021938324 -0.693894028663635254
-4.61940956115722656 -0.718725681304931641 -0.0198899321258068085
-1.16634345054626465 -2.28517246246337891 0.164318889379501343
-7.97467756271362305 -1.09802484512329102 -0.702098190784454346
-1.27748656272888184 1.71558606624603271 -0.631125450134277344
-2.65684795379638672 1.39612364768981934 -0.126141026616096497
-6.33782052993774414 -1.57970976829528809 0.253882646560668945
-5.23517990112304688 1.72810530662536621 0.193961352109909058
-3.24977016448974609 0.707439303398132324 0.531296193599700928
-0.98926544189453125 -0.316392093896865845 1.41705906391143799
-7.74650812149047852 1.85647594928741455 0.314775764942169189
-3.73173642158508301 1.84735536575317383 1.30484616756439209
-1.60321223735809326 1.90583980083465576 -0.398007988929748535
-2.32044744491577148 -0.409187048673629761 1.08761310577392578
-8.53228378295898438 0.11347556859254837 1.46911382675170898
-10.3619117736816406 -1.1982731819152832 0.988729953765869141
-10.1664152145385742 -0.150583624839782715 1.6509014368057251
-1.22207474708557129 -1.38759207725524902 0.0265837777405977249
-9.00426864624023438 -0.331219494342803955 1.27405714988708496
-7.66727733612060547 0.0515225231647491455 0.468724578619003296
-9.92352676391601562 0.825209498405456543 1.17550492286682129
-2.75790691375732422 -0.537852227687835693 1.42154431343078613
-10.6545839309692383 1.48423302173614502 0.581978678703308105
-11.3090829849243164 -1.00465166568756104 -0.226435557007789612
-7.47807741165161133 -1.21910357475280762 -0.756425023078918457
-10.1773929595947266 0.414591878652572632 1.05414807796478271
-3.13371491432189941 2.23508262634277344 -0.300475150346755981
-0.870990633964538574 1.82473373413085938 -0.10361422598361969
-4.82124519348144531 -1.44398117065429688 0.045633755624294281
-2.09314250946044922 3.31264567375183105 1.51709437370300293
-4.47736167907714844 -0.853097498416900635 0.542533934116363525
-11.7529277801513672 -1.2560584545135498 -0.136004135012626648
-12.2645816802978516 -1.37600696086883545 -0.0580401495099067688
-10.689875602722168 3.17891263961791992 0.565257012844085693
-2.8587651252746582 0.244426697492599487 0.94407045841217041
-6.30324840545654297 0.582487881183624268 -0.318611711263656616
-8.58808231353759766 0.0328861810266971588 1.37438499927520752
-3.86969852447509766 1.20595002174377441 -0.152459993958473206
-13.0332088470458984 1.53973686695098877 0.706308126449584961
-8.27460956573486328 1.71326005458831787 0.437089264392852783
-9.91567420959472656 -1.70586609840393066 0.589048981666564941
-11.699040412902832 2.98164200782775879 0.856795787811279297
-1.99411499500274658 1.94411540031433105 0.883718907833099365
-4.55340909957885742 0.620305240154266357 -0.437298208475112915
-9.83545875549316406 -0.310079663991928101 1.62552714347839355
-5.27389192581176758 0.194159731268882751 -0.0598428063094615936
-8.24562931060791016 0.652978837490081787 0.922361671924591064
-10.9293527603149414 -1.11565804481506348 0.847722411155700684
-0.909077763557434082 -0.594544172286987305 1.22863733768463135
-1.61110079288482666 0.658089876174926758 0.1829424649477005
-4.93275165557861328 0.867711961269378662 -0.214462250471115112
-10.4279384613037109 -0.939641296863555908 -0.263406336307525635
-10.0014715194702148 -0.0185821540653705597 0.275142580270767212
0.137873068451881409 0.592775404453277588 -0.011253848671913147
-1.07040786743164062 1.73613560199737549 0.654816091060638428
-11.4993305206298828 -0.634945571422576904 -0.708870828151702881
-1.40834724903106689 0.460585057735443115 0.87464296817779541
-1.07606208324432373 -0.42383342981338501 -0.0418982133269309998
-1.37266743183135986 0.4291534423828125 -0.523694694042205811
-1.61675262451171875 -1.15380001068115234 1.46400260925292969
-12.2338113784790039 -0.867335796356201172 0.55115896463394165
2.5624995231628418 0.639611959457397461 0.377879500389099121
2.40625977516174316 -0.580018401145935059 1.09885227680206299
-7.93487358093261719 0.503590404987335205 -0.0767599120736122131
-12.5872669219970703 -1.50960588455200195 0.774121940135955811
-9.32545280456542969 0.941265225410461426 -0.873610377311706543
-1.76579439640045166 -0.97395777702331543 0.083270542323589325
-2.97776055335998535 1.52663898468017578 -0.50523984432220459
-2.2743375301361084 1.32867085933685303 0.101197376847267151
-6.26840496063232422 -0.915358901023864746 -0.601964831352233887
-11.7324924468994141 -1.14636516571044922 -0.476055413484573364
2.17226219177246094 -0.414872527122497559 -0.609432876110076904
-6.41724061965942383 -0.615759670734405518 -0.0679294392466545105
-2.9026038646697998 2.37895298004150391 -0.211075857281684875
-2.24296975135803223 -1.00135624408721924 -0.924830198287963867
-2.83578276634216309 3.65048742294311523 -0.807755410671234131
-9.36651611328125 -1.53771352767944336 -0.824697673320770264
-5.06159067153930664 1.35650694370269775 1.60390496253967285
-5.45255184173583984 -0.0362610891461372375 -0.0693364068865776062
-10.9448204040527344 -0.850103437900543213 -0.936049818992614746
-0.115266032516956329 -0.527989804744720459 0.951381981372833252
-7.47546482086181641 -0.868019700050354004 1.61244690418243408
-4.76369714736938477 -0.434695124626159668 1.39019167423248291
-0.425368636846542358 0.506190240383148193 -0.859643518924713135
-8.04265975952148438 0.418904334306716919 -0.873993337154388428
-2.68923759460449219 1.18893349170684814 -0.658812642097473145
-4.03290510177612305 -0.433759421110153198 0.412783622741699219
-7.84106159210205078 1.69608581066131592 0.235222563147544861
-12.9777679443359375 1.00723862648010254 1.0071561336517334
-3.7104179859161377 3.12301468849182129 -0.748622655868530273
-4.87046670913696289 -1.36495125293731689 0.182797282934188843
-7.08375358581542969 -1.11474120616912842 -0.397863209247589111
-2.34070324897766113 1.81802248954772949 0.114999040961265564
-7.89635896682739258 1.84591424465179443 1.09761679172515869
-7.67756175994873047 0.558017253875732422 -0.627684533596038818
-6.09461736679077148 -0.844932615756988525 -0.782760202884674072
-3.92436122894287109 1.88736248016357422 0.808575272560119629
-7.57391929626464844 1.85571348667144775 0.912398755550384521
-6.45854616165161133 0.942856967449188232 1.36022937297821045
-10.5697956085205078 1.00872063636779785 0.642690658569335938
-9.67217159271240234 -0.760092616081237793 -0.670341134071350098
-1.36568629741668701 2.94916367530822754 -0.594646453857421875
-10.273320198059082 -0.578137874603271484 -0.154251947999000549
-9.67935657501220703 1.3939814567565918 0.401829004287719727
-10.4065685272216797 0.845649242401123047 0.839029490947723389
-6.04383993148803711 1.38465118408203125 0.08752460777759552
-8.44792938232421875 -0.347102105617523193 -0.754113495349884033
-6.14062404632568359 -1.15095901489257812 0.531607151031494141
-2.25234079360961914 1.02313578128814697 -0.899883627891540527
-9.69365024566650391 1.08030712604522705 -0.611838459968566895
-1.3683478832244873 -1.18090581893920898 0.714482724666595459
-10.8904018402099609 -0.00366435199975967407 1.55826985836029053
-11.4299840927124023 1.1215212345123291 1.03280854225158691
-5.13256740570068359 -1.06237852573394775 -0.972670793533325195
0.0486278906464576721 -0.123045735061168671 0.574558734893798828
-1.2998354434967041 0.130891114473342896 1.52039659023284912
-4.95467996597290039 1.91946494579315186 0.83138042688369751
-12.1344614028930664 2.13895153999328613 0.794533431529998779
-8.06458568572998047 1.57643067836761475 0.763967990875244141
-9.79930973052978516 1.70970344543457031 1.51060092449188232
-6.07416820526123047 -0.973075807094573975 -0.395968794822692871
-11.4875097274780273 3.3666534423828125 0.508817911148071289
-6.16740083694458008 0.533003926277160645 -0.047273244708776474
-8.49647426605224609 -1.20941662788391113 0.990113258361816406
-11.4199323654174805 -1.39088821411132812 0.343246370553970337
-0.493768215179443359 0.569392025470733643 0.0830432921648025513
-5.7608942985534668 -1.60444927215576172 0.526891887187957764
-0.294988304376602173 0.127586647868156433 0.369355618953704834
1.66624021530151367 0.512882709503173828 0.345945894718170166
-13.4351997375488281 -1.33899986743927002 -0.698594272136688232
-2.16499590873718262 2.7027890682220459 -0.0726633742451667786
-5.96352863311767578 -0.110993467271327972 -0.342311263084411621
-4.97311544418334961 -1.05667340755462646 -0.918235898017883301
-2.31938695907592773 -0.165327638387680054 1.00182509422302246
0.32613566517829895 -0.828221440315246582 1.08324527740478516
-6.27455329895019531 2.01351308822631836 0.818792343139648438
-5.03365945816040039 -1.09160792827606201 0.146769270300865173
1.68735551834106445 -0.450808882713317871 0.478396475315093994
-0.372614562511444092 0.0454251952469348907 1.13911676406860352
-1.60155713558197021 -1.61543524265289307 -0.271841973066329956
-2.64963936805725098 2.4099431037902832 -0.147917181253433228
-1.97119152545928955 0.405040174722671509 -0.765376448631286621
-4.86670875549316406 2.33253622055053711 -0.911179423332214355
-9.28277015686035156 1.28906762599945068 -0.374138444662094116
-1.21374011039733887 0.864736318588256836 1.47197329998016357
-10.4466218948364258 0.308736622333526611 0.157998055219650269
5.63412237167358398 0.138575553894042969 -0.364022493362426758
-8.9315948486328125 0.585531949996948242 -0.9627189040184021
-7.58838415145874023 1.85217559337615967 0.865719020366668701
-2.51776671409606934 1.21392822265625 0.134073108434677124
-9.41314792633056641 -0.306638330221176147 -0.337579905986785889
-10.1182575225830078 -0.576793551445007324 0.975238323211669922
-10.9605522155761719 -0.84560924768447876 -0.0669543817639350891
-2.45315408706665039 2.45617866516113281 -0.852605223655700684
-3.77059412002563477 -0.915437102317810059 -0.0532173439860343933
-4.61513233184814453 -1.2015225887298584 -0.890237390995025635
-10.6584768295288086 0.785128772258758545 1.44722902774810791
-9.803802490234375 -1.43997573852539062 0.178567692637443542
1.32029056549072266 -0.487631440162658691 -0.466462433338165283
-2.5720975399017334 0.956329941749572754 -0.0305636245757341385
-3.3205873966217041 -1.49961328506469727 0.790307521820068359
-7.02942609786987305 2.2259981632232666 1.13123679161071777
-10.9358530044555664 0.09870196133852005 0.719019889831542969
-7.04071283340454102 -0.159808993339538574 -0.891902506351470947
-5.47770595550537109 0.947479963302612305 -0.106123410165309906
-9.63717079162597656 -0.130469933152198792 -0.569471538066864014
-1.23500311374664307 0.906222105026245117 1.4693378210067749
3.79338455200195312 0.28773382306098938 1.12923908233642578
-11.1277894973754883 -1.4152066707611084 -0.106213673949241638
-10.3405342102050781 1.19956493377685547 0.546873927116394043
-12.0631685256958008 -1.69170773029327393 0.977890849113464355
-8.30208683013916016 -1.34104728698730469 0.0134215923026204109
-0.638728439807891846 -0.127356618642807007 -0.617438852787017822
-1.3710712194442749 3.12616896629333496 0.91921311616897583
-1.12849748134613037 0.575727343559265137 0.218054428696632385
-1.0618511438369751 -2.30871844291687012 0.0274175349622964859
-13.6662683486938477 2.0554497241973877 0.0226821545511484146
2.39997982978820801 -0.383691996335983276 -0.681815028190612793
-11.7669649124145508 -2.9641726016998291 1.23946166038513184
-9.03719043731689453 1.50313329696655273 0.25836634635925293
-9.10365581512451172 1.21161103248596191 0.965499639511108398
-1.74543845653533936 0.856976866722106934 1.51829314231872559
4.85472869873046875 -0.359878033399581909 -0.595428764820098877
-1.51751720905303955 0.490945696830749512 -0.220985352993011475
-5.19846296310424805 1.87515580654144287 0.696819961071014404
-1.72476327419281006 1.42934024333953857 -0.187854617834091187
-7.02796173095703125 1.76463949680328369 0.254383891820907593
-3.78082466125488281 2.1049046516418457 0.18718583881855011
-6.50545263290405273 -1.02137959003448486 -0.208167672157287598
-12.5421648025512695 -1.77030837535858154 0.911670148372650146
-10.1399164199829102 1.61884045600891113 0.642545342445373535
-3.51825952529907227 0.981502056121826172 -0.87405860424041748
-4.03822755813598633 -1.02721798419952393 0.746199190616607666
-11.0484552383422852 -1.16661643981933594 0.246407985687255859
-9.44577693939208984 -0.277243226766586304 0.140267103910446167
-5.47901153564453125 3.79586982727050781 -0.736367881298065186
-5.79461908340454102 1.79302144050598145 0.857893943786621094
-9.25187206268310547 -0.970656335353851318 1.02467644214630127
-1.52642965316772461 3.18753886222839355 1.57892501354217529
-7.54763698577880859 -0.716254949569702148 1.58167529106140137
-2.76803874969482422 0.303065240383148193 1.44966220855712891
-6.23498773574829102 2.24705195426940918 0.876470625400543213
1.68249392509460449 -0.44912344217300415 -0.179511696100234985
-11.5767002105712891 -0.821133732795715332 0.337790071964263916
-6.24363470077514648 0.392146289348602295 -0.570542097091674805
-9.63170433044433594 1.55759871006011963 1.04039263725280762
-7.08046627044677734 1.48275184631347656 0.292475610971450806
-13.0081233978271484 -1.3233104944229126 -0.761451482772827148
-6.25736284255981445 2.32328534126281738 0.733584165573120117
-0.921148002147674561 1.0808185338973999 0.631062507629394531
-5.37315797805786133 -0.203735604882240295 0.198759421706199646
-8.08447360992431641 -1.25708401203155518 0.522099733352661133
-2.56232547760009766 1.63048899173736572 1.48008811473846436
-0.518867731094360352 -0.535275518894195557 1.03258466720581055
-2.2599341869354248 -1.09597086906433105 -0.321952253580093384
-3.70551776885986328 -0.104965172708034515 1.42077910900115967
-6.98375415802001953 0.376449078321456909 1.08950996398925781
-10.3971042633056641 0.00500906864181160927 0.194514811038970947
-3.94576025009155273 1.53130102157592773 -0.540652751922607422
-6.76453399658203125 -0.11692037433385849 1.49620151519775391
-9.66679668426513672 1.32525992393493652 0.366066068410873413
-6.64416170120239258 -0.887819886207580566 -0.465163350105285645
-1.81328165531158447 1.17764866352081299 -0.0913854464888572693
-7.13867950439453125 1.58716404438018799 1.48902022838592529
-1.06536293029785156 0.628420889377593994 -0.33198237419128418
-2.16294693946838379 1.39898288249969482 -0.222962424159049988
-4.45842170715332031 2.33536577224731445 0.375353753566741943
-10.1939516067504883 -0.556674063205718994 0.202765196561813354
-9.7555389404296875 -0.260293304920196533 -0.589242935180664062
-6.91383266448974609 0.423111200332641602 1.39017784595489502
-10.7596311569213867 2.12420940399169922 0.403021544218063354
-1.00036728382110596 -1.34648430347442627 -0.0973000600934028625
-2.28595733642578125 -1.13038921356201172 0.478666931390762329
-0.393964678049087524 -2.25859308242797852 -0.302741974592208862
-2.54593682289123535 -1.30871689319610596 1.28074216842651367
-1.22186398506164551 0.448311001062393188 -0.718621134757995605
1.37295591831207275 0.985898315906524658 -0.771455466747283936
-1.66961228847503662 1.84276008605957031 -0.713119208812713623
0.767964541912078857 -0.496899008750915527 0.11672036349773407
-8.26537799835205078 -1.05685627460479736 -0.0573580116033554077
6.29917716979980469 -0.157495543360710144 -0.0867219716310501099
-9.66062164306640625 -0.9730338454246521 -0.10601034015417099
-13.4089202880859375 -1.79713022708892822 -0.857117414474487305
-7.87439441680908203 0.341033071279525757 0.680153965950012207
-1.0717846155166626 -0.188445836305618286 -0.707234799861907959
-2.59366559982299805 1.53281152248382568 -0.00643312325701117516
-8.30301570892333984 -1.22011208534240723 -0.155889227986335754
-5.44459772109985352 0.381340682506561279 1.03096795082092285
-2.79964232444763184 0.448377907276153564 1.45722174644470215
-1.91495490074157715 1.30853521823883057 1.00607204437255859
-4.16419458389282227 1.60955977439880371 0.256987094879150391
-9.73992633819580078 -1.52583050727844238 0.579657256603240967
-6.7742457389831543 0.730105102062225342 -0.555079221725463867
-4.95887565612792969 0.683671116828918457 -1.11928164958953857
-6.32678651809692383 -0.341510802507400513 -0.884082436561584473
-7.17171812057495117 0.482240080833435059 -0.979904711246490479
1.96830391883850098 -0.209281682968139648 1.82617545127868652
-4.61210536956787109 0.468136370182037354 1.5395500659942627
-5.44287204742431641 -1.17301058769226074 1.08961760997772217
-1.73146319389343262 0.535591721534729004 -0.0223004035651683807
-9.52691078186035156 -0.0319431163370609283 0.956226110458374023
-1.81821715831756592 -1.52762079238891602 1.28999030590057373
-5.30794811248779297 -1.38752973079681396 0.0870698094367980957
-5.33131027221679688 0.861941516399383545 -0.342339992523193359
-4.78727006912231445 1.62198913097381592 -0.61522209644317627
-10.2100915908813477 1.20033156871795654 1.4111098051071167
-1.21997237205505371 -1.45624732971191406 1.35293781757354736
-4.84680509567260742 -0.786382198333740234 0.701706528663635254
-1.30374515056610107 1.80681049823760986 -0.0926188156008720398
-3.119842529296875 -1.13421809673309326 1.37169325351715088
-5.58869552612304688 1.87805557250976562 -0.548676133155822754
2.27624320983886719 -0.433011114597320557 -0.502058982849121094
-3.03261685371398926 1.05832433700561523 -0.712310194969177246
-10.0688810348510742 1.92248284816741943 0.382493823766708374
-0.959638833999633789 -0.595240294933319092 -0.972935676574707031
-8.97806358337402344 1.01340103149414062 0.160276368260383606
-3.15557289123535156 -1.13070881366729736 0.445823580026626587
-8.93001270294189453 0.910951793193817139 0.698594748973846436
-1.30872368812561035 1.49912106990814209 0.308409333229064941
-8.46185207366943359 0.952881872653961182 0.0751817300915718079
-13.2279367446899414 -1.63510382175445557 -0.829380273818969727
-10.6676836013793945 -0.611138820648193359 1.22203278541564941
-2.902008056640625 0.966805875301361084 -0.616499125957489014
-6.32266664505004883 -0.703272104263305664 0.279734343290328979
-1.06947159767150879 -0.843777716159820557 1.38163089752197266
-12.0539703369140625 -1.43028223514556885 -0.54591137170791626
-10.405613899230957 -1.03392326831817627 0.699513077735900879
-0.870308041572570801 0.456810742616653442 0.676778912544250488
-6.22371006011962891 -0.469350546598434448 -0.0713068097829818726
-10.4919338226318359 -0.589815020561218262 0.753843724727630615
-6.8285670280456543 -0.53224027156829834 -0.982662737369537354
-3.58162355422973633 -0.350064247846603394 1.49748396873474121
-2.51564383506774902 -1.05798721313476562 -0.124131612479686737
-10.4325590133666992 -0.0921397283673286438 0.601506829261779785
-5.76796293258666992 -0.85186845064163208 -0.797643542289733887
-1.3094637393951416 -1.13052654266357422 0.479133367538452148
4.01884698867797852 0.0295635517686605453 0.415708243846893311
-6.19481372833251953 -0.140638962388038635 -0.875908613204956055
-4.84644556045532227 -0.895561575889587402 0.51152801513671875
-13.2269439697265625 -1.68778598308563232 -0.727827847003936768
-11.3805484771728516 0.306842267513275146 0.926819026470184326
-7.64349699020385742 -0.310091942548751831 -0.899908065795898438
-0.992976248264312744 1.19735407829284668 -0.728241443634033203
-1.3054344654083252 -1.00471103191375732 -0.575702369213104248
-1.16642856597900391 -0.672271847724914551 1.50668931007385254
-7.95451974868774414 -0.372587144374847412 -0.873620510101318359
-8.76333904266357422 -1.17914283275604248 -0.977803707122802734
-7.54105234146118164 0.516327500343322754 -0.173326998949050903
-2.30997323989868164 -0.886125743389129639 0.633709132671356201
-9.13883781433105469 1.73772525787353516 0.602083146572113037
-10.8387556076049805 1.01687514781951904 0.910441160202026367
-2.97223758697509766 3.05378293991088867 0.0697848573327064514
-2.32959556579589844 -0.834377586841583252 -0.947325050830841064
-6.75284671783447266 0.82249152660369873 -0.388091772794723511
-10.5406122207641602 -0.97396397590637207 -0.913415610790252686
-12.3614559173583984 -1.18276023864746094 0.63153994083404541
-2.29768228530883789 2.88375520706176758 1.44882869720458984
-3.19595003128051758 2.316192626953125 -0.626803815364837646
-1.76819491386413574 -1.73509812355041504 0.237304553389549255
-7.96437692642211914 -1.04034674167633057 1.46833276748657227
-1.27280199527740479 1.30597352981567383 0.557032942771911621
0.610108017921447754 -0.0442050471901893616 0.0400076769292354584
-11.1985712051391602 1.0392385721206665 0.519583523273468018
-0.955225229263305664 -0.641186356544494629 0.263173311948776245
-9.30749702453613281 1.12114250659942627 -0.424357116222381592
-6.90236043930053711 -1.20171058177947998 1.35960721969604492
-10.9734258651733398 0.0219988878816366196 1.69836223125457764
-5.84355926513671875 -1.32380497455596924 1.46631014347076416
-2.45766878128051758 2.43387222290039062 1.04566299915313721
-2.14390683174133301 1.35999560356140137 -0.952093899250030518
-4.87610578536987305 2.13103866577148438 0.0851798057556152344
-10.0862340927124023 0.880869805812835693 1.3408735990524292
-6.97943592071533203 0.305078357458114624 1.52576959133148193
-5.17485141754150391 -1.51999843120574951 1.1668320894241333
-8.79205226898193359 0.315545409917831421 1.19608330726623535
-4.18640756607055664 -0.824233353137969971 0.730480968952178955
-0.556205272674560547 1.12506842613220215 1.22793149948120117
-4.26627588272094727 1.74533975124359131 1.3323129415512085
-8.05542564392089844 -1.16998028755187988 -0.083965010941028595
-0.913765132427215576 -2.33944272994995117 -0.17142428457736969
-10.5837478637695312 1.1073681116104126 0.735040664672851562
-2.45031142234802246 -0.354677766561508179 1.1955866813659668
-8.14081954956054688 -0.630773603916168213 -0.981679618358612061
-9.21434974670410156 0.584505438804626465 1.40202713012695312
-2.40273380279541016 0.00466544833034276962 1.05681347846984863
-6.34300947189331055 -0.542550265789031982 -0.145763248205184937
-8.35548114776611328 -0.865151584148406982 -0.935263931751251221
-11.5496492385864258 -1.13251185417175293 1.21021628379821777
-10.7407093048095703 -0.405884861946105957 0.261947721242904663
-8.87177085876464844 -1.1939241886138916 0.364215761423110962
2.96058106422424316 0.522549271583557129 0.114854149520397186
-1.14548671245574951 -0.911701977252960205 1.29653620719909668
4.34182977676391602 0.444520890712738037 0.580073654651641846
-2.09816503524780273 1.6826099157333374 0.000597695005126297474
-10.7598276138305664 -1.78090465068817139 0.295372903347015381
-9.83122348785400391 -0.129968240857124329 0.420488864183425903
-1.21195244789123535 -1.4870760440826416 -0.0072530815377831459
-4.35507678985595703 -1.46260309219360352 1.04892599582672119
-6.33518505096435547 0.508943080902099609 -0.163704127073287964
-2.15233302116394043 -0.836583197116851807 1.19685995578765869
-1.92444467544555664 0.259136170148849487 1.4704362154006958
-11.7872514724731445 -0.688207328319549561 0.560188829898834229
-9.05283641815185547 -0.635324299335479736 0.422763556241989136
-10.0263242721557617 0.274346858263015747 1.40582573413848877
-1.37310302257537842 1.02228546142578125 -0.0653323903679847717
-10.6685619354248047 -0.38386988639831543 -0.549492597579956055
-6.05725860595703125 0.00378818553872406483 -0.074168279767036438
-10.4925518035888672 -0.492494136095046997 0.0448587127029895782
-9.21044540405273438 1.45618045330047607 0.727023959159851074
-2.54784297943115234 0.816503047943115234 0.939705371856689453
-4.27937602996826172 -0.602675557136535645 0.183745503425598145
-6.41360902786254883 0.6809844970703125 1.19304466247558594
-10.614710807800293 1.21855294704437256 0.588450193405151367
-6.0020904541015625 0.272219002246856689 0.946614384651184082
-1.64579272270202637 3.29494619369506836 0.632715046405792236
-7.67720222473144531 1.52608346939086914 -0.983936905860900879
-0.936489701271057129 0.284382462501525879 0.54432213306427002
-3.6104590892791748 -1.04047036170959473 0.131363615393638611
-3.26049590110778809 2.93671894073486328 -0.443993180990219116
-0.43425828218460083 -0.632681131362915039 1.13368964195251465
-2.12111234664916992 0.624295651912689209 -0.706283926963806152
-9.20800018310546875 0.719440281391143799 1.57212913036346436
-1.02691090106964111 3.2897498607635498 0.327613919973373413
-2.10840964317321777 2.37752985954284668 0.744659543037414551
-6.69578647613525391 -0.505436480045318604 1.39689505100250244
-6.39114189147949219 -1.17352008819580078 1.47605204582214355
-10.4366455078125 0.815717458724975586 0.341392666101455688
-10.1862344741821289 1.5255281925201416 0.740029096603393555
-3.24029111862182617 -0.615469038486480713 1.09335708618164062
-6.57978296279907227 -1.08523714542388916 -0.824589967727661133
-11.0029296875 0.305348098278045654 1.44991099834442139
-11.5901556015014648 1.46978020668029785 0.0327573604881763458
-2.65174269676208496 3.19980335235595703 -0.858889281749725342
-3.04027271270751953 0.81562429666519165 -0.377356618642807007
-6.66710901260375977 0.730194509029388428 -0.714126288890838623
-7.28181123733520508 1.341033935546875 -0.110127687454223633
-7.30794811248779297 -0.716596066951751709 -0.204937934875488281
-2.1154477596282959 -0.00445970287546515465 1.17711997032165527
-9.74906158447265625 -0.112563826143741608 -0.532700300216674805
-3.27294445037841797 1.05187582969665527 -0.569086432456970215
-11.7401800155639648 -0.665533959865570068 -0.0382023900747299194
0.294105798006057739 -0.491620779037475586 0.652629315853118896
-9.50775718688964844 -0.599959731101989746 -0.186550527811050415
-8.06212234497070312 -1.06841444969177246 0.999132037162780762
-10.3370180130004883 -0.540989935398101807 -0.198265373706817627
-10.3205814361572266 -1.09944939613342285 0.578535497188568115
-3.95853042602539062 -0.831843793392181396 -0.140264376997947693
-1.98761403560638428 3.13296151161193848 -0.878983974456787109
-4.78362798690795898 -0.217872381210327148 0.0861479267477989197
-3.0126953125 2.29044103622436523 0.554087221622467041
-9.74625015258789062 -0.289090901613235474 -0.781332969665527344
2.37458682060241699 -0.471473366022109985 0.922306180000305176
-12.3653955459594727 -1.6521456241607666 0.441093385219573975
-5.19372892379760742 0.415230542421340942 -0.271889209747314453
-2.33265876770019531 0.271158397197723389 -1.00030577182769775
-3.36968779563903809 -1.11133158206939697 0.358968347311019897
-12.1478729248046875 -0.840272605419158936 0.287619799375534058
-8.14466762542724609 -1.16141092777252197 0.886074542999267578
1.62101328372955322 -0.630502164363861084 1.66031134128570557
-9.42713451385498047 0.0678170844912528992 1.53199601173400879
-3.58005928993225098 3.1253349781036377 -0.363515973091125488
-2.30072307586669922 -1.13036751747131348 0.541324913501739502
-1.17519235610961914 0.737507402896881104 -0.293211907148361206
-3.48417782783508301 3.07041478157043457 -0.319191932678222656
-9.33717155456542969 -1.08715212345123291 0.486700892448425293
-9.57908916473388672 -0.129040345549583435 1.46236371994018555
-5.25992155075073242 -1.45747697353363037 1.18744421005249023
-7.72118282318115234 0.854993462562561035 0.77868729829788208
-2.39293193817138672 1.46000134944915771 -0.544597089290618896
-2.8372948169708252 2.80320954322814941 -0.572845101356506348
-10.2408533096313477 2.63320565223693848 0.476342529058456421
-6.23435401916503906 1.8102036714553833 0.927305996417999268
-1.27697360515594482 -0.0419669747352600098 0.815172016620635986
-4.93630599975585938 1.67720770835876465 0.825107812881469727
-10.6639919281005859 0.319701105356216431 -0.00493536237627267838
-1.81540203094482422 0.136127173900604248 -0.372110188007354736
-4.35185146331787109 0.461726456880569458 -0.263779371976852417
-6.61850118637084961 -0.921910107135772705 -0.307302385568618774
-7.95203542709350586 -0.128903523087501526 1.589447021484375
-6.72037220001220703 1.89650630950927734 1.12096810340881348
-9.40858173370361328 -0.215258345007896423 0.202204108238220215
-10.1992321014404297 -0.0324370972812175751 1.1503300666809082
-8.84915637969970703 -1.08709704875946045 1.48978507518768311
-2.97415304183959961 2.15676164627075195 0.585844039916992188
-6.6979680061340332 -1.20566082000732422 0.239536166191101074
4.1212916374206543 0.0140356589108705521 -0.997658371925354004
-8.05154609680175781 -1.57724547386169434 0.0393849648535251617
-10.2038259506225586 1.2075040340423584 1.07874321937561035
-7.4442896842956543 -1.15636670589447021 0.0954795107245445251
-2.59565854072570801 -1.26372277736663818 0.881865322589874268
-8.32813644409179688 -0.162449553608894348 1.48952341079711914
-9.61177158355712891 1.32940864562988281 0.548636555671691895
-2.67128968238830566 0.835689663887023926 -0.188289299607276917
3.23492002487182617 0.00374497496522963047 -0.891376197338104248
-7.05133247375488281 -1.20451462268829346 1.43026483058929443
-1.58771359920501709 0.60705256462097168 -0.193376541137695312
-3.25559186935424805 0.614800393581390381 -0.579733073711395264
-8.99515819549560547 -0.158731445670127869 1.54598116874694824
-8.87640285491943359 0.350445300340652466 1.4543071985244751
-3.12868571281433105 1.3474808931350708 1.473807692527771
-9.89493560791015625 -1.11443793773651123 0.558446109294891357
-12.3233356475830078 -1.64293599128723145 0.461504280567169189
-2.60365509986877441 1.2054133415222168 -0.793502211570739746
-6.72264862060546875 -0.132798328995704651 -0.372979193925857544
-4.62399578094482422 0.515584051609039307 -0.223509877920150757
-5.01464557647705078 -1.41764438152313232 1.48222947120666504
-4.28773736953735352 0.639127075672149658 1.40758430957794189
-1.4417654275894165 -0.48794931173324585 -0.975317060947418213
-3.89925241470336914 1.79596853256225586 1.27914118766784668
0.360977590084075928 -0.738665521144866943 0.871642708778381348
0.268082350492477417 -0.293524473905563354 0.817503988742828369
-4.56734514236450195 -1.33884274959564209 1.39254403114318848
-11.4736623764038086 -1.46655583381652832 -0.282196044921875
-9.99212360382080078 0.468297183513641357 0.508572757244110107
-1.48949325084686279 1.66387081146240234 -0.327270835638046265
-1.89550173282623291 0.0671009644865989685 -0.457194924354553223
-9.16749000549316406 1.21915769577026367 -0.879233598709106445
-6.62555694580078125 0.89813542366027832 -0.272202670574188232
-2.894805908203125 2.78447937965393066 -0.936583817005157471
-0.236950963735580444 -0.299064278602600098 -0.409150242805480957
-8.97376346588134766 1.55477070808410645 1.31796598434448242
-3.47269511222839355 0.330708205699920654 -0.0764486566185951233
-5.63570356369018555 1.60116636753082275 0.552572369575500488
-1.78483641147613525 -0.0747468248009681702 0.87624514102935791
-8.84174919128417969 1.65016555786132812 0.854119181632995605
-0.995210051536560059 -0.622045397758483887 -0.929007351398468018
-9.68275642395019531 -0.888601064682006836 0.625999569892883301
-9.53725719451904297 0.613718271255493164 1.63028836250305176
-2.34879326820373535 0.199941664934158325 1.10124349594116211
-6.76814508438110352 0.645584762096405029 -0.274559825658798218
-3.03212070465087891 -0.98574519157409668 -0.416523069143295288
-11.401545524597168 -0.941714048385620117 -0.934685230255126953
-6.72155094146728516 0.0596592240035533905 -0.0157306157052516937
-6.31788539886474609 2.33328104019165039 0.474270790815353394
-8.23948574066162109 -1.0057988166809082 -0.964093685150146484
-7.08587312698364258 0.323215603828430176 1.43832051753997803
-6.77829599380493164 1.35786640644073486 1.56506812572479248
-0.463423043489456177 -0.667528927326202393 -0.694670438766479492
-13.0475225448608398 -1.56878089904785156 -0.85821998119354248
-10.3624677658081055 -0.331251710653305054 -0.395201414823532104
-1.25720953941345215 0.72984623908996582 1.41883790493011475
-12.5318851470947266 -1.46055281162261963 0.176489472389221191
-5.54922819137573242 3.57608246803283691 -0.832948863506317139
-4.75537919998168945 -1.01499295234680176 0.809358179569244385
0.691927731037139893 -0.283013194799423218 -0.535981237888336182
-9.19794940948486328 1.28774774074554443 1.62785053253173828
-10.8703346252441406 -0.222677633166313171 -0.996039807796478271
-9.28114795684814453 0.944380223751068115 -0.874963879585266113
-1.36592578887939453 -0.487680494785308838 -0.151469647884368896
-7.56900978088378906 -0.355747401714324951 -0.203971430659294128
-6.6159367561340332 -1.5424734354019165 0.0329232625663280487
-12.0558023452758789 -0.804407715797424316 0.444663822650909424
-12.9374847412109375 0.582440853118896484 0.523240268230438232
-5.23514842987060547 0.507880032062530518 0.888163387775421143
0.00336902099661529064 -0.074084743857383728 -0.450113475322723389
-7.92419052124023438 0.442325890064239502 1.27286732196807861
-12.5952243804931641 1.42262411117553711 0.389067590236663818
-1.3162161111831665 1.08969235420227051 -0.821560859680175781
-10.0454177856445312 -0.369693338871002197 -0.00560004031285643578
-2.78001093864440918 -0.16235882043838501 1.26527142524719238
-1.64256918430328369 0.392331153154373169 -0.774566054344177246
-10.8167819976806641 -1.30482113361358643 1.33466947078704834
-9.11998176574707031 1.33439123630523682 -0.372317850589752197
0.0520556271076202393 0.576862931251525879 -0.661033451557159424
-12.1197414398193359 0.552790343761444092 0.732241153717041016
-2.08782792091369629 1.86921560764312744 0.517062842845916748
-9.41270637512207031 -1.51761436462402344 -0.919852614402770996
-2.9353935718536377 2.07317948341369629 -0.710282325744628906
-10.4711551666259766 -1.11192178726196289 -0.389985948801040649
-7.51170969009399414 0.774189651012420654 -0.885195434093475342
-10.2845706939697266 1.39711856842041016 0.762236893177032471
-4.94520998001098633 0.294180721044540405 -0.689444601535797119
-2.11388778686523438 0.0567221827805042267 1.40630555152893066
-3.11038684844970703 2.62775468826293945 -0.886866092681884766
-8.23890304565429688 -1.11068546772003174 0.89753425121307373
-9.50561046600341797 -0.804008424282073975 1.40120172500610352
-11.6946868896484375 -1.1916879415512085 0.501296281814575195
-2.93719840049743652 1.97001111507415771 1.24662244319915771
0.62401050329208374 -0.561927914619445801 0.323655456304550171
-9.41731548309326172 -1.56264889240264893 -0.84895932674407959
-3.68315768241882324 2.55734467506408691 -0.491313248872756958
4.8082127571105957 0.248094603419303894 -0.840466141700744629
1.67943000793457031 -0.173789486289024353 -0.608088195323944092
-13.2358684539794922 0.870080053806304932 0.524176955223083496
-11.6846170425415039 -2.71336007118225098 0.899164140224456787
-9.90956020355224609 -0.264353096485137939 -0.576448738574981689
-12.1377725601196289 0.786407470703125 0.400596171617507935
-2.12981891632080078 0.779686510562896729 -0.959290087223052979
-1.61102545261383057 -1.75756978988647461 0.178655818104743958
-8.99948501586914062 1.74169826507568359 1.00763297080993652
-10.9672708511352539 1.18295133113861084 1.49408352375030518
-0.730793178081512451 0.0573918484151363373 -0.0871314182877540588
-10.2700719833374023 0.413916617631912231 -0.0249221194535493851
-1.21843481063842773 -0.240692615509033203 1.15817821025848389
-10.3246793746948242 -1.15239250659942627 -0.115937314927577972
-3.56931114196777344 2.0888221263885498 0.272248029708862305
-9.68356132507324219 0.188558265566825867 0.68804323673248291
-5.85421848297119141 1.54590058326721191 0.977006971836090088
-2.73881840705871582 2.49955487251281738 -0.148893579840660095
-7.74476814270019531 -1.3863903284072876 0.423960775136947632
-0.877470195293426514 0.860666513442993164 1.48615670204162598
2.12428903579711914 0.360334813594818115 0.867048203945159912
-12.6091766357421875 1.3489607572555542 0.295217156410217285
-6.90228033065795898 -0.0638919472694396973 0.203971490263938904
-1.99726557731628418 0.407681792974472046 -0.824917137622833252
-2.78587555885314941 2.00214815139770508 -0.00370583287440240383
-11.0740699768066406 -0.954229056835174561 0.294690877199172974
-10.6689577102661133 0.547246336936950684 0.103841416537761688
-7.53352785110473633 1.91470682621002197 0.627016067504882812
-1.67478311061859131 1.45167624950408936 -0.514698684215545654
-3.41111993789672852 -0.40494343638420105 -0.895397484302520752
-2.03325343132019043 -1.2514033317565918 0.446657299995422363
-11.6645374298095703 -0.643588721752166748 -0.523537099361419678
-10.9040241241455078 3.71202445030212402 0.644154012203216553
-5.36048507690429688 1.26313817501068115 -1.05932247638702393
-9.26159763336181641 -0.393885701894760132 1.12012588977813721
4.18468523025512695 0.69517970085144043 0.336638092994689941
0.954114317893981934 -0.285212010145187378 -0.650314748287200928
-1.96764492988586426 2.25236320495605469 0.791633129119873047
-4.62659263610839844 0.578186988830566406 0.0805506780743598938
-2.39017915725708008 -0.258412569761276245 -0.874388515949249268
-0.493115752935409546 0.470874518156051636 0.0321838408708572388
-2.90473246574401855 1.90521693229675293 -0.0925461128354072571
-4.27779960632324219 2.08907294273376465 0.151855945587158203
-9.60402393341064453 1.63687765598297119 1.4180830717086792
-0.898193478584289551 0.41704869270324707 1.72618341445922852
-9.41266632080078125 -1.54250681400299072 1.56166684627532959
-0.731208086013793945 -0.128653377294540405 0.762838006019592285
-1.96721744537353516 -0.680212795734405518 -0.284475564956665039
-2.04314470291137695 1.32337331771850586 0.34758913516998291
-1.08074760437011719 1.67657196521759033 1.09480464458465576
-1.33741903305053711 3.2731626033782959 0.625593483448028564
-5.40381050109863281 0.787731528282165527 0.0953001156449317932
-7.76614904403686523 0.62324678897857666 1.45454227924346924
0.304258555173873901 -0.243937328457832336 -0.479645758867263794
-4.99263811111450195 -1.60190129280090332 0.127647995948791504
-7.81849193572998047 1.32631158828735352 0.75787663459777832
-10.5658845901489258 0.994539260864257812 -0.00975297484546899796
-2.52504205703735352 -1.33522999286651611 1.13413405418395996
1.34688138961791992 1.00167286396026611 -0.594451606273651123
-5.04227924346923828 1.81823945045471191 0.334686070680618286
-4.9609527587890625 -0.974413096904754639 -0.368997067213058472
-9.26876354217529297 0.977858662605285645 -0.683096170425415039
-0.906004786491394043 0.0080845346674323082 0.579745769500732422
-6.57739639282226562 1.77094244956970215 -0.11372096836566925
-8.98435688018798828 -1.54405009746551514 1.31880176067352295
-4.65442371368408203 1.50159049034118652 1.4796147346496582
-8.21819782257080078 0.669148802757263184 1.46637368202209473
-11.2950954437255859 0.826733589172363281 0.60652458667755127
-0.5773811936378479 -0.403738439083099365 -0.061282426118850708
-3.72750425338745117 1.28116691112518311 -0.338523149490356445
-7.0390472412109375 2.0002896785736084 1.00968146324157715
-1.77835738658905029 -0.336785286664962769 1.27885651588439941
-8.89916896820068359 -0.288446277379989624 -0.954193651676177979
-9.39510154724121094 -0.737497031688690186 0.702534198760986328
-10.6861991882324219 0.702770709991455078 0.231081411242485046
-5.97955513000488281 1.19719195365905762 -1.09528541564941406
-0.114488780498504639 0.546107053756713867 -0.324760079383850098
-5.72586441040039062 1.13447690010070801 1.35619008541107178
-7.97456455230712891 0.938870608806610107 1.29170167446136475
-9.47421073913574219 1.29710531234741211 0.366714715957641602
-12.4805212020874023 -1.55452895164489746 -0.320986151695251465
-0.331491559743881226 -0.0827181339263916016 -0.975562870502471924
-11.2371616363525391 -0.932541847229003906 0.362592875957489014
-4.52948856353759766 -0.0412866063416004181 1.38489663600921631
-3.86493134498596191 -0.183172166347503662 -1.01306831836700439
3.86871480941772461 0.222506225109100342 0.88267672061920166
-8.52927017211914062 1.60347497463226318 0.936140477657318115
-7.46734857559204102 -0.614531278610229492 -0.777465581893920898
-12.2365875244140625 0.451740473508834839 0.464779019355773926
-1.90784347057342529 -1.02011561393737793 -0.51613694429397583
-8.07914924621582031 -0.972352504730224609 -0.918958842754364014
-2.19637966156005859 -1.46909773349761963 0.135298460721969604
-4.95372152328491211 -0.317665815353393555 0.0662043392658233643
-1.86844480037689209 -0.1640453040599823 1.37900817394256592
-11.0419502258300781 2.89893126487731934 0.854144096374511719
-0.961308836936950684 -0.41310843825340271 -0.172672823071479797
-9.56007862091064453 0.95265662670135498 1.58924353122711182
-2.5391998291015625 2.83665585517883301 1.48886704444885254
-2.45310449600219727 -1.27647554874420166 -0.0430104061961174011
-10.6253767013549805 -1.66354227066040039 0.587246894836425781
-10.1372947692871094 0.905465781688690186 0.754884719848632812
-0.0172082409262657166 -0.509930551052093506 -0.98428654670715332
-10.2680721282958984 -0.336977720260620117 1.40678250789642334
1.08522367477416992 0.385797411203384399 0.113447867333889008
-2.38872742652893066 0.628967642784118652 0.296480059623718262
-0.327533811330795288 0.649980783462524414 -0.428311198949813843
-11.0674123764038086 0.938168764114379883 0.282075703144073486
-6.55025720596313477 -1.1425163745880127 1.41850864887237549
-5.44594812393188477 1.51520013809204102 -0.849673986434936523
-3.91932535171508789 0.327549606561660767 0.254808306694030762
-9.22704982757568359 0.841931283473968506 -0.983040809631347656
-3.53806447982788086 -0.831229925155639648 -0.35217931866645813
-12.1772346496582031 -0.697328507900238037 -0.316709965467453003
-10.0256414413452148 1.2082216739654541 -0.0130303995683789253
-10.802586555480957 -1.63380849361419678 -0.913515746593475342
-1.38804709911346436 0.654422998428344727 -0.851028203964233398
3.76768803596496582 0.379234492778778076 0.158316388726234436
-5.05314064025878906 -1.12911522388458252 0.740725517272949219
-10.5952882766723633 -1.31044292449951172 0.745929121971130371
-11.4678926467895508 3.26684808731079102 1.08744275569915771
-10.4287281036376953 -0.0293784085661172867 1.28894925117492676
-12.3143434524536133 1.94668281078338623 0.308825880289077759
-1.67179536819458008 -1.47186088562011719 0.48616492748260498
-8.75686454772949219 1.45736503601074219 1.59237885475158691
-3.10668087005615234 2.91980099678039551 -0.630355536937713623
-2.9199059009552002 2.80332207679748535 -0.882882595062255859
-7.53783082962036133 -0.36206430196762085 -0.864909231662750244
-6.37247419357299805 -1.16639387607574463 0.985918402671813965
-8.98362636566162109 -0.753766119480133057 0.717663347721099854
-12.1601181030273438 0.509129345417022705 0.788821935653686523
-0.944516241550445557 0.599388301372528076 -0.370704591274261475
-2.89320111274719238 1.75382506847381592 -0.0528882779181003571
-7.53979158401489258 2.00232839584350586 1.29385507106781006
-13.1705484390258789 0.957381308078765869 -0.285983145236968994
-5.59742355346679688 -1.19414424896240234 1.41505372524261475
-12.4182329177856445 -1.06821131706237793 0.110010005533695221
0.126516193151473999 0.550031185150146484 -0.356873780488967896
0.451584607362747192 0.429137527942657471 -0.955410420894622803
-12.2211370468139648 -1.01213908195495605 0.501747667789459229
-6.26131916046142578 -1.15644514560699463 1.53253328800201416
-1.78093886375427246 1.37719047069549561 -0.962425470352172852
-13.7334136962890625 0.837006688117980957 1.05579590797424316
-10.5117988586425781 -1.53170251846313477 -0.409646093845367432
-6.65290260314941406 0.594814181327819824 -0.0512528344988822937
-1.70816171169281006 2.92787504196166992 0.0362109877169132233
-0.632908761501312256 -2.37633013725280762 0.0760828405618667603
-13.3123941421508789 1.23244273662567139 0.730717658996582031
-5.82254409790039062 -1.38429319858551025 0.000716900045517832041
-10.113001823425293 0.279280543327331543 1.36504185199737549
-1.93458330631256104 1.63645946979522705 -0.395517557859420776
-9.06006813049316406 -0.102833256125450134 0.211438149213790894
-0.995368421077728271 -0.1763019859790802 1.35783767700195312
-8.56045341491699219 0.266270101070404053 1.46688187122344971
-10.2427215576171875 1.65284693241119385 0.249122574925422668
1.17509913444519043 0.639042139053344727 -1.00465166568756104
-0.955785989761352539 -0.463552892208099365 0.478253185749053955
-12.2859859466552734 1.82879376411437988 -0.00459221377968788147
-1.01528620719909668 -0.275351226329803467 0.71009981632232666
-8.43542289733886719 0.643950760364532471 0.630728304386138916
-9.51657772064208984 0.561728239059448242 1.11312997341156006
-8.95105743408203125 0.765473604202270508 1.42992734909057617
-11.1451091766357422 0.462293177843093872 0.694986879825592041
-8.97641754150390625 0.332265675067901611 1.25626790523529053
-8.88197422027587891 1.59631717205047607 -0.32581627368927002
-0.199233531951904297 -0.500848650932312012 0.0510496422648429871
-3.56618165969848633 1.49875295162200928 0.14125041663646698
-0.910630285739898682 -0.718709826469421387 1.22152948379516602
-5.22165822982788086 0.885751783847808838 -0.102590873837471008
-6.63216733932495117 0.854602396488189697 0.165582671761512756
0.471531271934509277 0.685544312000274658 -1.00997722148895264
-4.87291765213012695 0.212969020009040833 1.30214929580688477
4.23296356201171875 0.138681665062904358 0.290886133909225464
-5.13537120819091797 -0.296267092227935791 -1.03418636322021484
-12.3130617141723633 -1.68463265895843506 -0.967292666435241699
-6.56588506698608398 1.80777037143707275 -0.161863535642623901
-11.0574283599853516 0.841106295585632324 1.0251164436340332
-5.12801885604858398 3.4892580509185791 -0.259965568780899048
-3.85531926155090332 2.6383204460144043 -0.528792738914489746
-4.65536928176879883 -1.58608424663543701 0.579492807388305664
3.22056698799133301 0.337442129850387573 0.477074921131134033
-3.55033612251281738 0.247089162468910217 0.930752873420715332
-9.86722946166992188 -1.10529458522796631 1.39165949821472168
-4.82446527481079102 0.877264797687530518 -0.679908335208892822
-6.87631654739379883 1.1621321439743042 1.52925789356231689
-4.25618505477905273 -1.03079235553741455 0.598385632038116455
-0.166107803583145142 0.354438513517379761 -0.826494932174682617
-6.060333251953125 -0.875222623348236084 1.38590109348297119
-0.659801900386810303 -0.381111383438110352 -0.688955545425415039
-9.66308879852294922 0.279271960258483887 0.34532320499420166
-2.94228267669677734 4.3361353874206543 -0.907669782638549805
-1.1684192419052124 -1.31509673595428467 -0.820984959602355957
-7.92424583435058594 1.00952005386352539 0.902778387069702148
-8.56169414520263672 -1.29453408718109131 -0.251837760210037231
-1.0098419189453125 0.561270356178283691 0.836764693260192871
-3.70370078086853027 0.177412062883377075 1.08305501937866211
-12.6803207397460938 1.11970388889312744 0.0652532130479812622
-12.5190267562866211 -1.05759036540985107 0.585166037082672119
-1.97274899482727051 1.85912632942199707 1.03207087516784668
-2.55112433433532715 -1.08958637714385986 -0.979633510112762451
-5.01181221008300781 0.419700384140014648 1.47625935077667236
-9.23277568817138672 -1.23790061473846436 0.347101986408233643
-9.93374729156494141 0.818052232265472412 0.951262891292572021
-0.589864611625671387 -1.18385255336761475 0.0431546531617641449
-11.112431526184082 -1.77548813819885254 -0.00523488782346248627
-9.7243194580078125 1.16978013515472412 -0.00577161693945527077
