ply
format ascii 1.0
element vertex 753
comment vertices
property float x
property float y
property float z
end_header
-8.70108222961425781 -1.04770827293395996 0.450868278741836548
-1.91225838661193848 0.665565192699432373 -0.332625389099121094
-8.35303592681884766 -1.1278005838394165 -0.412565946578979492
-4.39134883880615234 -1.04330360889434814 1.32780158519744873
-4.32679986953735352 -1.03460276126861572 0.700981557369232178
-2.4600372314453125 -1.10200786590576172 0.237563461065292358
-7.60089635848999023 -0.138976737856864929 -0.297728806734085083
-8.68389606475830078 -1.11380136013031006 0.927165985107421875
-7.1473240852355957 -1.19805300235748291 -0.745803952217102051
-7.66989326477050781 -1.02361106872558594 -0.206008672714233398
-2.032684326171875 0.612563550472259521 -0.455326706171035767
-9.68940925598144531 1.04275941848754883 -0.612395167350769043
-7.86629533767700195 -0.161254659295082092 -0.984012365341186523
-5.18556404113769531 -0.971996903419494629 -0.785379290580749512
-2.30088019371032715 0.911440610885620117 -0.546195507049560547
-5.6060943603515625 -1.48805403709411621 0.330494225025177002
-4.31809663772583008 -0.987830579280853271 0.880613446235656738
-2.85332202911376953 1.14704799652099609 -0.728496968746185303
-6.12867021560668945 0.125771880149841309 -0.539460122585296631
-9.07607078552246094 -1.17911612987518311 -0.443552166223526001
-7.94808673858642578 -0.165611028671264648 -0.615438759326934814
-5.37429094314575195 1.67486333847045898 0.607026219367980957
-7.50290632247924805 -1.36707651615142822 -0.452785640954971313
-2.63700175285339355 1.12318027019500732 -0.523771822452545166
-2.72967720031738281 1.04419076442718506 -0.844329476356506348
-10.0050477981567383 0.66125863790512085 -0.906777322292327881
-5.56804943084716797 0.835465431213378906 -0.564063549041748047
-3.86409807205200195 -0.824536800384521484 -0.527267634868621826
-7.02840995788574219 -0.147802799940109253 -0.0798456445336341858
-7.23763322830200195 -1.29328715801239014 0.996318459510803223
-2.12521052360534668 0.514676034450531006 -0.785390257835388184
-2.4246213436126709 1.4354555606842041 -0.190303891897201538
-7.96764373779296875 -0.0140287289395928383 -0.764339923858642578
-5.56061840057373047 0.840537488460540771 -0.87681734561920166
-5.79482841491699219 -1.21490120887756348 0.546947002410888672
-8.40931797027587891 -1.42208802700042725 0.724452972412109375
-5.66430282592773438 -1.21584606170654297 0.349273324012756348
-7.36435365676879883 0.427411973476409912 -0.765365481376647949
-7.49726963043212891 -0.108358144760131836 -0.755297422409057617
-1.82817888259887695 -1.06916224956512451 -0.979891955852508545
-1.74721837043762207 -1.28482139110565186 -0.873907625675201416
-8.6624908447265625 -1.15280890464782715 -0.759016513824462891
-7.91747665405273438 0.181407570838928223 -0.0771253630518913269
-6.25824213027954102 -1.31732523441314697 -0.163831338286399841
-9.3229217529296875 -1.51352012157440186 -0.689197957515716553
-6.24755477905273438 0.735017836093902588 -0.817239642143249512
-2.81932306289672852 0.861002683639526367 -0.676101148128509521
-4.72000551223754883 0.338138759136199951 -0.132047086954116821
-4.68276691436767578 0.3591938316822052 -0.0884255841374397278
-10.0956630706787109 0.411920696496963501 -0.937371194362640381
-6.9583892822265625 -0.0470490343868732452 -0.370000600814819336
-5.53412771224975586 -1.55182290077209473 0.191417872905731201
-4.87694501876831055 0.221319571137428284 -0.0579129457473754883
-7.837615966796875 -1.228859543800354 -0.93260037899017334
-4.43119621276855469 0.413452327251434326 -0.79334944486618042
-7.03783082962036133 0.337157607078552246 -0.0622418969869613647
-3.60579514503479004 -0.827767372131347656 -0.907828211784362793
-5.38600587844848633 0.261982530355453491 -0.755897581577301025
-8.57628250122070312 -1.40773844718933105 0.196656137704849243
-1.94770228862762451 1.34855258464813232 -0.569037973880767822
-9.22893428802490234 -1.38806986808776855 0.403148025274276733
-7.05980634689331055 -1.32374429702758789 0.575057864189147949
-4.28851079940795898 -1.04828798770904541 -0.654772162437438965
-5.6751251220703125 0.667810261249542236 -0.882884383201599121
-10.0522851943969727 0.713032126426696777 -0.465660899877548218
-10.1788387298583984 0.532836973667144775 -0.874043405055999756
-5.58919668197631836 -1.55559134483337402 1.08228552341461182
-8.38305091857910156 -1.52588391304016113 0.0163944084197282791
-5.98316287994384766 -0.972594797611236572 -0.20351719856262207
-5.7585139274597168 -1.24465036392211914 -0.0613439269363880157
-3.46038985252380371 -1.17508912086486816 1.21235859394073486
-9.88350582122802734 1.01012253761291504 -0.786218047142028809
-9.89277362823486328 1.18852651119232178 -0.822329223155975342
-9.70085716247558594 1.01633810997009277 -0.619345605373382568
-5.68747091293334961 -1.37112593650817871 1.14634215831756592
-8.63716697692871094 -1.14313209056854248 -0.0992986485362052917
-3.99379754066467285 -0.949639618396759033 0.060858704149723053
-5.08523797988891602 0.199603378772735596 -0.604882955551147461
-8.14837646484375 -1.15639138221740723 -0.890697181224822998
-2.26830434799194336 1.62855386734008789 -0.381420731544494629
-2.9256746768951416 -1.30972373485565186 1.02331781387329102
-2.48507118225097656 -1.07967925071716309 0.42608487606048584
-9.80683612823486328 0.950605630874633789 -0.821585416793823242
-3.46986246109008789 -1.11257839202880859 1.29909133911132812
-6.34103202819824219 -1.21083247661590576 -0.865955889225006104
-4.68897342681884766 0.102839566767215729 -0.305724084377288818
-3.36919760704040527 -1.24276983737945557 -0.211471781134605408
-3.53966546058654785 -1.19353604316711426 -0.0175075195729732513
-2.12247323989868164 -1.07780051231384277 -0.899188876152038574
-8.44914436340332031 -1.33071410655975342 -0.784900009632110596
-7.47927618026733398 -1.35366702079772949 -0.807720482349395752
-3.3200528621673584 -1.08204615116119385 -0.55916208028793335
-7.07279109954833984 -1.33196866512298584 0.764886975288391113
-9.93355178833007812 0.293041348457336426 -0.781307756900787354
-5.60020828247070312 -1.13693881034851074 -0.527948617935180664
-2.5917818546295166 -1.02086389064788818 0.439663916826248169
-2.81358623504638672 0.689774096012115479 -0.442477762699127197
-2.53025579452514648 1.21728157997131348 -0.293552994728088379
-5.70839071273803711 0.293238192796707153 -0.631076335906982422
-2.57181382179260254 0.932239711284637451 -0.513288378715515137
-9.03347873687744141 -1.16278564929962158 0.125831082463264465
-2.59641551971435547 -1.3025672435760498 0.390168488025665283
-8.50252342224121094 -1.32571935653686523 0.541228711605072021
-5.74202203750610352 0.113975197076797485 -0.0937064513564109802
-7.07683658599853516 -1.24292838573455811 0.00563887506723403931
-5.05335092544555664 -0.964925169944763184 -0.933359682559967041
-3.9252617359161377 -0.948154211044311523 -0.657754421234130859
-2.59219908714294434 -1.05872774124145508 0.936521530151367188
-4.40857553482055664 -1.01364266872406006 0.254043787717819214
-2.94924545288085938 -1.06744098663330078 0.840630769729614258
-4.14910030364990234 -1.00483846664428711 -0.815726101398468018
-9.822723388671875 0.0233231298625469208 -0.681881546974182129
-8.8743743896484375 -1.30466341972351074 -0.416856169700622559
-7.24744749069213867 -1.39816188812255859 0.155480429530143738
-6.74725151062011719 0.535164773464202881 -0.966647088527679443
-7.03172397613525391 -1.45220458507537842 0.333849608898162842
-9.15459918975830078 -1.3087766170501709 0.579266488552093506
-2.20730996131896973 0.834085047245025635 -0.541902840137481689
-3.33547663688659668 -1.24769151210784912 0.132650047540664673
-5.64231348037719727 -1.15944004058837891 0.037917502224445343
-7.28955268859863281 -1.05716001987457275 -0.504756391048431396
-2.17914366722106934 1.59684419631958008 -0.716530025005340576
-5.83946704864501953 0.025023261085152626 -0.469594568014144897
-9.44627475738525391 0.860907196998596191 -0.924585580825805664
-2.62982726097106934 1.30118954181671143 -0.830124914646148682
-5.53003835678100586 -1.18604505062103271 0.830306529998779297
-8.87499332427978516 -1.11031150817871094 1.14416146278381348
-5.32647848129272461 -0.0298587959259748459 -0.0797068625688552856
-4.50727128982543945 0.407038182020187378 -0.253174751996994019
-5.15944433212280273 -1.00183391571044922 -0.911498188972473145
-2.75043797492980957 0.87686997652053833 -0.127667665481567383
-2.73412585258483887 -1.07366704940795898 -0.207677051424980164
-8.05734539031982422 -1.28465044498443604 -0.17820306122303009
-7.21765041351318359 -0.126566603779792786 -0.0970771163702011108
-4.20650815963745117 -0.855646610260009766 0.1364554762840271
-8.39245128631591797 -1.45429015159606934 0.247659489512443542
-2.3845219612121582 -1.38952469825744629 -0.0834929570555686951
-2.90788698196411133 1.60304510593414307 -0.350222408771514893
-2.48311233520507812 1.06280481815338135 -0.719825148582458496
-2.17160296440124512 -1.03864777088165283 -0.373900622129440308
-2.04243326187133789 1.3961329460144043 -0.861028075218200684
-2.14899897575378418 -1.0779571533203125 -0.329196423292160034
-4.51969671249389648 0.411245882511138916 -0.333253473043441772
-5.43412542343139648 0.474492758512496948 -0.347124159336090088
-7.0820159912109375 -1.2378612756729126 1.1566929817199707
-9.22649955749511719 -1.38527262210845947 0.490788817405700684
-6.79316806793212891 0.763567566871643066 -0.0608949288725852966
-5.00464391708374023 -1.02871274948120117 -0.735037088394165039
-2.57385778427124023 -1.2897496223449707 0.460323452949523926
-4.18490171432495117 -0.977691948413848877 -0.0912318304181098938
-2.54608654975891113 1.47191107273101807 -0.386039882898330688
-7.02916526794433594 0.479232311248779297 -0.410434246063232422
-7.56517839431762695 -0.105679407715797424 -0.877308189868927002
-9.98551845550537109 -0.078324437141418457 -0.562594771385192871
-6.4294886589050293 -1.18457174301147461 -0.776269674301147461
-8.09012508392333984 -1.23429691791534424 -0.863569378852844238
-8.42536735534667969 -1.1394423246383667 0.183265611529350281
-7.36067104339599609 -1.2952343225479126 -0.941803634166717529
-3.12313008308410645 -1.28320181369781494 0.0659308731555938721
-2.91025471687316895 1.33200395107269287 -0.643302202224731445
-1.97637808322906494 0.568348944187164307 -0.30778387188911438
-8.83139896392822266 -1.09602129459381104 1.25137031078338623
-4.246734619140625 -0.947143137454986572 0.453384548425674438
-7.84736251831054688 0.458467066287994385 -0.672984063625335693
-2.25413298606872559 1.62897336483001709 -0.858929038047790527
-2.00329160690307617 0.538337230682373047 -0.141119107604026794
-7.97467756271362305 -1.09802484512329102 -0.702098190784454346
-2.65684795379638672 1.39612364768981934 -0.126141026616096497
-7.47807741165161133 -1.21910357475280762 -0.756425023078918457
-6.30324840545654297 0.582487881183624268 -0.318611711263656616
-9.32545280456542969 0.941265225410461426 -0.873610377311706543
-2.97776055335998535 1.52663898468017578 -0.50523984432220459
-5.45255184173583984 -0.0362610891461372375 -0.0693364068865776062
-8.04265975952148438 0.418904334306716919 -0.873993337154388428
-2.68923759460449219 1.18893349170684814 -0.658812642097473145
-7.08375358581542969 -1.11474120616912842 -0.397863209247589111
-2.25234079360961914 1.02313578128814697 -0.899883627891540527
-9.69365024566650391 1.08030712604522705 -0.611838459968566895
-6.07416820526123047 -0.973075807094573975 -0.395968794822692871
-8.49647426605224609 -1.20941662788391113 0.990113258361816406
-4.97311544418334961 -1.05667340755462646 -0.918235898017883301
-3.77059412002563477 -0.915437102317810059 -0.0532173439860343933
-4.61513233184814453 -1.2015225887298584 -0.890237390995025635
-7.04071283340454102 -0.159808993339538574 -0.891902506351470947
-6.50545263290405273 -1.02137959003448486 -0.208167672157287598
-4.03822755813598633 -1.02721798419952393 0.746199190616607666
-6.24363470077514648 0.392146289348602295 -0.570542097091674805
-2.16294693946838379 1.39898288249969482 -0.222962424159049988
-8.26537799835205078 -1.05685627460479736 -0.0573580116033554077
-8.30301570892333984 -1.22011208534240723 -0.155889227986335754
-6.7742457389831543 0.730105102062225342 -0.555079221725463867
-3.03261685371398926 1.05832433700561523 -0.712310194969177246
-3.15557289123535156 -1.13070881366729736 0.445823580026626587
-2.902008056640625 0.966805875301361084 -0.616499125957489014
-2.51564383506774902 -1.05798721313476562 -0.124131612479686737
-6.75284671783447266 0.82249152660369873 -0.388091772794723511
-2.14390683174133301 1.35999560356140137 -0.952093899250030518
-4.18640756607055664 -0.824233353137969971 0.730480968952178955
-8.05542564392089844 -1.16998028755187988 -0.083965010941028595
-8.87177085876464844 -1.1939241886138916 0.364215761423110962
-4.35507678985595703 -1.46260309219360352 1.04892599582672119
-6.05725860595703125 0.00378818553872406483 -0.074168279767036438
-3.6104590892791748 -1.04047036170959473 0.131363615393638611
-2.12111234664916992 0.624295651912689209 -0.706283926963806152
-6.57978296279907227 -1.08523714542388916 -0.824589967727661133
-3.04027271270751953 0.81562429666519165 -0.377356618642807007
-6.66710901260375977 0.730194509029388428 -0.714126288890838623
-3.95853042602539062 -0.831843793392181396 -0.140264376997947693
-5.19372892379760742 0.415230542421340942 -0.271889209747314453
-3.36968779563903809 -1.11133158206939697 0.358968347311019897
-9.33717155456542969 -1.08715212345123291 0.486700892448425293
-2.39293193817138672 1.46000134944915771 -0.544597089290618896
-2.59565854072570801 -1.26372277736663818 0.881865322589874268
-2.67128968238830566 0.835689663887023926 -0.188289299607276917
-2.60365509986877441 1.2054133415222168 -0.793502211570739746
-4.62399578094482422 0.515584051609039307 -0.223509877920150757
-6.62555694580078125 0.89813542366027832 -0.272202670574188232
-6.76814508438110352 0.645584762096405029 -0.274559825658798218
-9.28114795684814453 0.944380223751068115 -0.874963879585266113
-4.94520998001098633 0.294180721044540405 -0.689444601535797119
-2.12981891632080078 0.779686510562896729 -0.959290087223052979
-1.99726557731628418 0.407681792974472046 -0.824917137622833252
-4.9609527587890625 -0.974413096904754639 -0.368997067213058472
-9.26876354217529297 0.977858662605285645 -0.683096170425415039
-2.45310449600219727 -1.27647554874420166 -0.0430104061961174011
-3.53806447982788086 -0.831229925155639648 -0.35217931866645813
-6.65290260314941406 0.594814181327819824 -0.0512528344988822937
-5.82254409790039062 -1.38429319858551025 0.000716900045517832041
-4.25618505477905273 -1.03079235553741455 0.598385632038116455
-8.56169414520263672 -1.29453408718109131 -0.251837760210037231
-9.23277568817138672 -1.23790061473846436 0.347101986408233643
-5.00894021987915039 1.69449770450592041 0.843499124050140381
-8.01951313018798828 -0.180299550294876099 -0.497653216123580933
-2.86646080017089844 -1.12560725212097168 -0.568064332008361816
-3.72773385047912598 -0.821199953556060791 0.10122322291135788
-3.20093870162963867 1.58102178573608398 -0.340736359357833862
-9.88179874420166016 0.701862931251525879 -0.91830211877822876
-7.43791866302490234 -1.20207595825195312 -0.90755617618560791
-2.10758447647094727 0.547072231769561768 -0.132556557655334473
-2.39311003684997559 1.25852859020233154 -0.672674894332885742
-6.03066873550415039 0.128205969929695129 -0.773321211338043213
-3.65692520141601562 -0.869882047176361084 0.783038496971130371
-8.79973602294921875 -1.18291389942169189 -0.640851318836212158
-2.83276200294494629 -1.33161675930023193 0.960798978805541992
-3.08248472213745117 0.750344455242156982 -0.290771603584289551
-7.43270063400268555 -1.28594517707824707 -0.19856986403465271
-2.82947325706481934 1.32145535945892334 -0.657807469367980957
-7.24640655517578125 0.253547579050064087 -0.131356269121170044
-7.67258453369140625 0.305453598499298096 -0.0993630662560462952
-2.88470578193664551 0.902909755706787109 -0.46825602650642395
-4.04381656646728516 -0.982087433338165283 0.775285542011260986
-2.99174857139587402 0.706890881061553955 -0.643027842044830322
-5.58681774139404297 -1.06624531745910645 -0.256211578845977783
-7.53872823715209961 -0.122439146041870117 -0.966615617275238037
-4.11356925964355469 -0.985275685787200928 -0.19435688853263855
-4.92477703094482422 0.380170285701751709 0.0679679885506629944
-6.5148015022277832 -1.05969619750976562 -0.546572446823120117
-4.38260126113891602 -0.824661374092102051 -0.527017056941986084
-6.77690458297729492 -1.2671886682510376 -0.702855527400970459
-7.17674970626831055 -1.2003474235534668 -0.558610618114471436
-2.81947135925292969 -1.09547483921051025 -0.815295875072479248
-8.83267879486083984 -1.42658567428588867 1.13094258308410645
-6.9726104736328125 0.961720168590545654 -0.0224412661045789719
-3.11414837837219238 1.21881330013275146 -0.534842431545257568
-5.51922130584716797 -0.987788498401641846 -0.809130609035491943
-2.29080009460449219 1.43252778053283691 -0.302810966968536377
-6.21162509918212891 -1.3669281005859375 -0.726672112941741943
-5.84777927398681641 -1.05945074558258057 -0.538324177265167236
-8.90948867797851562 -1.10501742362976074 -0.822164058685302734
-7.11692428588867188 -1.32470810413360596 0.572135329246520996
-2.6395270824432373 -1.36003172397613525 0.526303589344024658
-8.55807590484619141 -1.05544936656951904 0.552754878997802734
-4.202545166015625 -1.13477504253387451 0.779967606067657471
-5.76961183547973633 -1.41274833679199219 0.346748381853103638
-6.76612138748168945 0.836230695247650146 -0.545224606990814209
-5.65596628189086914 -1.37521469593048096 -0.69730144739151001
-5.66393470764160156 -1.23161041736602783 1.14293122291564941
-7.97606611251831055 -1.19202244281768799 -0.926390290260314941
-5.81912088394165039 -1.05461752414703369 -0.369205236434936523
-8.10623645782470703 -1.30212569236755371 -0.512612998485565186
-9.23688888549804688 -1.23141074180603027 -0.273830771446228027
-3.70923781394958496 -0.919061541557312012 -0.112484030425548553
-2.35553121566772461 1.30182015895843506 -0.775899350643157959
-2.91897010803222656 -1.0237431526184082 0.873380601406097412
-8.59081554412841797 -1.41986322402954102 0.111306615173816681
-3.12311959266662598 -1.17580592632293701 0.635110795497894287
-4.86615467071533203 1.72469103336334229 0.538287162780761719
-7.16682720184326172 0.244910791516304016 -0.122434772551059723
-9.10997772216796875 -1.27025771141052246 0.3413199782371521
-7.45395803451538086 -1.1234358549118042 -0.154734209179878235
-5.73387336730957031 0.533723056316375732 -0.649254262447357178
-4.36411476135253906 -0.945081532001495361 0.221014216542243958
-2.93195247650146484 -1.27791130542755127 0.693374812602996826
-6.71306562423706055 0.458539038896560669 -0.220128193497657776
-6.1542210578918457 -1.00494110584259033 -0.959271848201751709
-6.65953493118286133 0.726768553256988525 -0.735258340835571289
-1.80161309242248535 -1.07832598686218262 -0.710503637790679932
-2.84147930145263672 -1.13633573055267334 0.748266637325286865
-2.96064162254333496 1.03929710388183594 -0.71423870325088501
-8.42635631561279297 -1.34328877925872803 -0.598395884037017822
-9.03959751129150391 -1.27455902099609375 1.05764484405517578
-5.14735937118530273 0.356423228979110718 -0.440369904041290283
-6.21777153015136719 -1.12271416187286377 -0.633099079132080078
-2.0307459831237793 1.36210870742797852 -0.106040127575397491
-2.87489962577819824 1.63615798950195312 -0.9334145188331604
-5.21963167190551758 -1.21045422554016113 -0.919383227825164795
-3.46353578567504883 -1.4028555154800415 0.928025245666503906
-4.34487342834472656 -0.939928352832794189 0.77968144416809082
-6.76979827880859375 0.480648219585418701 -0.564722299575805664
-4.25400257110595703 -1.03044092655181885 0.326141715049743652
-2.00962376594543457 0.681876778602600098 -0.966220080852508545
-6.77296686172485352 0.462561041116714478 -0.223978117108345032
-3.28956174850463867 -1.18063509464263916 -0.216315090656280518
-9.83066177368164062 0.514020204544067383 -0.722407221794128418
-9.97629642486572266 1.09532976150512695 -0.925516247749328613
-9.08893108367919922 -1.15447509288787842 0.863655209541320801
-2.17059206962585449 1.55712592601776123 -0.911205470561981201
-7.85903549194335938 -1.14868724346160889 -0.402238786220550537
-3.70296883583068848 -0.898226618766784668 -0.540861129760742188
-4.1809086799621582 -0.820678472518920898 -0.170560762286186218
-3.22019124031066895 -1.37561428546905518 0.559319496154785156
-8.02372837066650391 0.398012906312942505 -0.0617362558841705322
-7.12443256378173828 -1.10400605201721191 -0.757009983062744141
-5.13467550277709961 0.412444770336151123 -0.260719209909439087
-9.31933021545410156 -1.35116136074066162 0.46612432599067688
-7.59085655212402344 -1.0557788610458374 -0.833654224872589111
-2.6786191463470459 1.30872118473052979 -0.774010002613067627
-6.53274393081665039 0.155071556568145752 -0.867061734199523926
-10.0906953811645508 0.251612365245819092 -0.484170198440551758
-7.53171539306640625 -1.36075985431671143 -0.239641040563583374
-2.06964683532714844 -1.3099597692489624 -0.341428279876708984
-5.08726310729980469 -0.00745637482032179832 -0.238419815897941589
-5.45975351333618164 -0.993840396404266357 -0.851344108581542969
-5.02208471298217773 -1.06096804141998291 -0.414881050586700439
-3.03135013580322266 0.771281719207763672 -0.237944424152374268
-4.34629058837890625 -0.973410308361053467 -0.725060760974884033
-5.21712589263916016 -1.01950740814208984 -0.833642899990081787
-4.01387310028076172 -1.02553892135620117 -0.551526367664337158
-4.349029541015625 -1.54473292827606201 0.489138603210449219
-8.03836536407470703 -0.122905999422073364 -0.565924763679504395
-7.8996129035949707 -1.28945708274841309 -0.0646382048726081848
-6.62569713592529297 -0.120674498379230499 -0.801565885543823242
-7.24000263214111328 -1.28793632984161377 -0.519013285636901855
-2.91211938858032227 1.30518805980682373 -0.427884846925735474
-4.80394601821899414 -1.10505485534667969 -0.569458127021789551
-2.85364937782287598 1.31779444217681885 -0.609788477420806885
-9.81630516052246094 -0.0297579392790794373 -0.520730972290039062
-4.69454097747802734 0.109070479869842529 -0.926886022090911865
-2.69513726234436035 0.766795694828033447 -0.365945219993591309
-3.65993404388427734 -0.936758756637573242 -0.56810307502746582
-6.18709468841552734 -1.02073407173156738 -0.630569815635681152
-5.18668842315673828 0.0568330772221088409 -0.640790581703186035
-1.73179388046264648 -1.1307837963104248 -0.579532265663146973
-1.9677814245223999 0.454913020133972168 -0.506471335887908936
-8.53934383392333984 -1.22029101848602295 -0.932959079742431641
-3.84567952156066895 -1.01858234405517578 0.426244825124740601
-4.38510799407958984 -1.2365410327911377 -0.719810664653778076
-3.00019216537475586 0.988087773323059082 -0.322103679180145264
-2.1411292552947998 -1.25265002250671387 -0.611605346202850342
-2.61151695251464844 1.42851972579956055 -0.394530355930328369
-3.09112024307250977 0.805801212787628174 -0.8259773850440979
-4.83056211471557617 0.202403709292411804 -0.628103137016296387
-4.76404380798339844 -0.00583769055083394051 0.0116578545421361923
-2.77913165092468262 0.647765219211578369 -0.344365477561950684
-2.66126298904418945 -1.32365226745605469 0.143616214394569397
-3.79898476600646973 -1.04489219188690186 -0.783392608165740967
-5.06411409378051758 0.308133631944656372 -0.915893912315368652
-9.19991874694824219 -1.18176162242889404 0.554462134838104248
-7.19728899002075195 0.466662079095840454 -0.0918795987963676453
-2.89238548278808594 -1.13795053958892822 -0.0239954553544521332
-3.14931964874267578 -1.1330181360244751 0.600549399852752686
-7.30327415466308594 0.323029518127441406 -0.0658276081085205078
-2.91882729530334473 -1.13862431049346924 0.737305879592895508
-9.23921394348144531 -1.34788405895233154 1.0467604398727417
-7.56453609466552734 -1.22753846645355225 -0.882763028144836426
-3.78444910049438477 -1.06264972686767578 0.585639059543609619
-5.47119522094726562 -0.00638889474794268608 -0.500198960304260254
-4.41266822814941406 -1.25855553150177002 1.11090445518493652
-8.68847560882568359 -1.07135617733001709 0.967733979225158691
-2.26278519630432129 1.2134174108505249 -0.463986665010452271
-5.79722881317138672 0.376160234212875366 -0.800863921642303467
-6.81779384613037109 0.537007272243499756 -0.331214219331741333
-2.04153990745544434 0.394499272108078003 -0.118234299123287201
-3.78044009208679199 -0.961386382579803467 0.933722376823425293
-3.05028533935546875 -1.1327519416809082 0.272325009107589722
-8.81363582611083984 -1.15857136249542236 0.0560708865523338318
-5.59898710250854492 -1.04109179973602295 -0.815513134002685547
-2.1942451000213623 0.795345008373260498 -0.920774281024932861
-8.93537330627441406 -1.05771791934967041 -0.431610614061355591
-6.8214259147644043 0.975671291351318359 -0.858851492404937744
-8.21821117401123047 -1.2329787015914917 -0.715835034847259521
-2.80041098594665527 1.00871491432189941 -0.643772423267364502
-6.10655021667480469 -1.09875905513763428 -0.172287419438362122
-2.30133962631225586 1.35016369819641113 -0.200611606240272522
-8.94695377349853516 -1.08923375606536865 0.78405916690826416
-4.58415365219116211 -0.00255560898222029209 -0.865722596645355225
-5.55885744094848633 -1.1503676176071167 -0.888021171092987061
-2.80775260925292969 1.10705006122589111 -0.925720870494842529
-5.26472187042236328 -0.0547564737498760223 -0.944299876689910889
-5.42622566223144531 -1.10773313045501709 -0.303680986166000366
-8.56380748748779297 -1.25731289386749268 -0.296195924282073975
-2.36001300811767578 0.910689771175384521 -0.649073898792266846
-9.08830833435058594 -1.22554337978363037 -0.508145570755004883
-6.00988864898681641 0.45768776535987854 -0.808148384094238281
-3.13434815406799316 0.672541558742523193 -0.844686925411224365
-9.37336158752441406 0.87244647741317749 -0.7236441969871521
-9.23829269409179688 0.822758972644805908 -0.580087006092071533
-8.46157360076904297 -1.57868099212646484 0.679724574089050293
-4.22714757919311523 -0.840513348579406738 -0.384981662034988403
-6.01893520355224609 0.680763900279998779 -0.714745879173278809
-5.60077047348022461 0.469429105520248413 -0.590757846832275391
-4.69555521011352539 -1.13790786266326904 -0.665620684623718262
-5.85131645202636719 0.0138445086777210236 -0.460699558258056641
-7.13293075561523438 0.452692508697509766 -0.883958876132965088
-6.686370849609375 0.589709937572479248 -0.540199398994445801
-7.02247238159179688 -1.54959487915039062 0.543257057666778564
-5.01374244689941406 -0.971382498741149902 -0.162741556763648987
-7.05553960800170898 0.51176983118057251 -0.272170573472976685
-9.3761138916015625 1.18126869201660156 -0.871482431888580322
-3.54871702194213867 -0.954564154148101807 -0.0507129468023777008
-2.96967244148254395 -1.13049876689910889 0.779004991054534912
-9.13646221160888672 -1.2713158130645752 0.515760719776153564
-5.45250940322875977 -1.43570733070373535 -0.0357641316950321198
-4.78514862060546875 -1.29906177520751953 -0.897042691707611084
-3.92085742950439453 -0.957245886325836182 -0.0586379840970039368
-2.54265260696411133 -1.12988078594207764 -0.0342431589961051941
-3.54952001571655273 -0.969796597957611084 0.284245789051055908
-6.06888055801391602 0.758959352970123291 -0.429057270288467407
-7.04276323318481445 -1.53182101249694824 0.389358371496200562
-3.25159621238708496 -1.34601128101348877 0.4376201331615448
-2.52356266975402832 0.883762359619140625 -0.501688480377197266
-8.03294754028320312 -1.1634528636932373 -0.133579552173614502
-6.88509273529052734 0.47239723801612854 -0.372030168771743774
-5.64296245574951172 -1.3433002233505249 0.155511662364006042
-5.61510705947875977 0.76730877161026001 -0.362881749868392944
-5.47212934494018555 0.499861478805541992 -0.308592706918716431
-3.1250910758972168 1.31469666957855225 -0.437208265066146851
-4.72021961212158203 -1.19187653064727783 -0.854282259941101074
-2.58776617050170898 1.35135757923126221 -0.5625496506690979
-5.61908912658691406 -0.0919428393244743347 -0.107817240059375763
-3.0763850212097168 1.34504055976867676 -0.268984109163284302
-4.05368137359619141 -1.00447690486907959 -0.742093086242675781
-6.19941520690917969 0.756725490093231201 -0.759911537170410156
-3.55723452568054199 -1.0678718090057373 -0.669186055660247803
-8.65611648559570312 -1.08571469783782959 1.11351585388183594
-2.20342898368835449 0.743822932243347168 -0.849284470081329346
-2.82786107063293457 -1.33382034301757812 0.0683251842856407166
-7.29773998260498047 -1.25530397891998291 0.683934330940246582
-10.0658750534057617 1.07480394840240479 -0.490128546953201294
-2.64392447471618652 -1.16872811317443848 0.336605578660964966
-7.96557140350341797 -0.124237380921840668 -0.433560341596603394
-3.08435821533203125 0.708659946918487549 -0.289221346378326416
-7.22838306427001953 -1.27022945880889893 1.00829994678497314
-3.15013003349304199 -1.17597007751464844 0.881546199321746826
-6.39570379257202148 -1.06110119819641113 -0.0640210732817649841
-8.97564029693603516 -1.3597710132598877 -0.22614973783493042
-4.88330602645874023 -1.23677301406860352 -0.697039604187011719
-4.87978935241699219 -0.0331107452511787415 -0.811118602752685547
-3.9896547794342041 -0.881470263004302979 0.763366639614105225
-7.95679473876953125 -1.07463395595550537 -0.274830520153045654
-9.22512340545654297 -1.44555056095123291 0.901923775672912598
-2.61922335624694824 0.832484126091003418 -0.153870522975921631
-5.71370172500610352 -1.17677974700927734 0.365729957818984985
-3.0252234935760498 0.674074053764343262 -0.875329196453094482
-5.98219728469848633 -0.0747466906905174255 -0.462187796831130981
-8.02204036712646484 0.312682300806045532 -0.725879132747650146
-4.37714862823486328 -1.50049817562103271 1.23831760883331299
-6.65721321105957031 -1.19949531555175781 -0.0414165928959846497
-9.37630748748779297 1.06158173084259033 -0.948514640331268311
-2.85031604766845703 0.965624392032623291 -0.801874816417694092
-6.11446857452392578 -1.07589995861053467 -0.809765934944152832
-5.03736591339111328 0.0215628184378147125 -0.790343344211578369
-8.76037883758544922 -1.05071377754211426 0.612625420093536377
-2.81257033348083496 -1.21193099021911621 0.203904196619987488
-2.79009675979614258 0.835645794868469238 -0.290657013654708862
-2.68626785278320312 -1.27831363677978516 0.800114274024963379
-6.41837882995605469 -1.25077104568481445 -0.513813555240631104
-7.76136207580566406 -1.18276000022888184 -0.81540977954864502
-7.30132532119750977 -1.21185088157653809 -0.49338144063949585
-8.945953369140625 -1.07948911190032959 0.513158798217773438
-8.79089164733886719 -1.09097945690155029 0.252317309379577637
-9.78748035430908203 0.200025871396064758 -0.464137017726898193
-2.56630444526672363 0.901545584201812744 -0.289886295795440674
-10.0127353668212891 0.762695014476776123 -0.482183754444122314
-2.92415595054626465 -1.03439116477966309 0.641003906726837158
-7.96786785125732422 -1.04502284526824951 -0.322013348340988159
-5.81396055221557617 -0.060954708606004715 -0.107073158025741577
-7.67156982421875 0.315868258476257324 -0.168932363390922546
-4.8516688346862793 -1.08758413791656494 -0.0423245728015899658
-6.53637123107910156 -0.993842840194702148 -0.813840925693511963
-3.10245943069458008 1.58523643016815186 -0.66166311502456665
-2.54342436790466309 -1.07347762584686279 0.32571101188659668
-5.61846828460693359 -1.52688193321228027 0.476401656866073608
-8.66044330596923828 -1.39871931076049805 0.877354919910430908
-4.09471464157104492 -0.886496424674987793 -0.342221230268478394
-4.34274864196777344 0.0711650177836418152 -0.272450059652328491
-5.56464767456054688 0.319453239440917969 -0.780370175838470459
-2.60594344139099121 -1.08325672149658203 -0.7037392258644104
-7.92335700988769531 -0.121686093509197235 -0.897172391414642334
-1.99429678916931152 0.522674441337585449 -0.259323596954345703
-2.31028914451599121 1.43036854267120361 -0.911447465419769287
-8.38205051422119141 -1.11852586269378662 1.23022890090942383
-5.22562885284423828 0.32304874062538147 -0.925066173076629639
-2.02089953422546387 0.492186397314071655 -0.413098007440567017
-3.56201887130737305 -0.960175991058349609 0.527228951454162598
-6.97010374069213867 0.383875191211700439 -0.0752321034669876099
-8.27880573272705078 -1.0998607873916626 -0.212398216128349304
-5.59067678451538086 0.814592063426971436 -0.818681001663208008
-8.53468990325927734 -1.42574238777160645 0.651647388935089111
-6.09824943542480469 0.761674344539642334 -0.319038152694702148
-7.13898038864135742 -1.0470426082611084 -0.306459635496139526
-3.3524017333984375 -1.26948320865631104 -0.00993549823760986328
-2.15239334106445312 -1.14468014240264893 -0.507120847702026367
-9.82697868347167969 0.813442647457122803 -0.557905077934265137
-5.71208667755126953 -1.28739559650421143 0.0815686360001564026
-8.29303550720214844 -1.05760288238525391 -0.445059627294540405
-6.63240432739257812 0.415498673915863037 -0.952880561351776123
-6.68804597854614258 -0.0212170574814081192 -0.177922427654266357
-1.91757082939147949 -1.10263323783874512 -0.407355308532714844
-6.21060800552368164 0.757034003734588623 -0.724829673767089844
-8.43638801574707031 -1.29761981964111328 0.988401830196380615
-2.86261796951293945 1.40750420093536377 -0.242473095655441284
-8.53846645355224609 -1.34874212741851807 0.869963228702545166
-3.52693080902099609 -0.995075881481170654 0.283147603273391724
-5.93987274169921875 -1.03474843502044678 -0.0549802146852016449
-3.57620835304260254 -1.02947163581848145 1.02594578266143799
-7.37514066696166992 -1.09981322288513184 -0.0755425840616226196
-8.35714054107666016 -1.43972659111022949 -0.0583697296679019928
-5.68857049942016602 -1.32635509967803955 0.148975402116775513
-4.19214963912963867 -0.945112526416778564 -0.420389235019683838
-6.60273599624633789 0.92701488733291626 -0.0921068638563156128
-3.04889798164367676 0.774167835712432861 -0.884482026100158691
-6.68333768844604492 1.02645230293273926 -0.978506803512573242
-2.25778675079345703 1.1900559663772583 -0.563854813575744629
-4.80884790420532227 0.022394007071852684 -0.846368074417114258
-4.82223653793334961 -1.04208207130432129 -0.927356064319610596
-7.00170612335205078 0.843729257583618164 -0.0221749190241098404
-3.0470736026763916 -1.13103759288787842 0.797745764255523682
-4.5093846321105957 -1.42339468002319336 -0.0659099742770195007
-7.28223085403442383 -0.116438783705234528 -0.187635466456413269
-8.02262592315673828 0.319125741720199585 -0.53384101390838623
-4.58000278472900391 0.554659903049468994 -0.922384023666381836
-3.85026288032531738 -0.882204711437225342 0.337488830089569092
-7.36608600616455078 -1.36402571201324463 -0.868936777114868164
-8.59372043609619141 -1.41432821750640869 1.04558026790618896
-3.10120201110839844 -1.02951085567474365 0.988027393817901611
-2.66271281242370605 -1.07275986671447754 0.838791906833648682
-7.22307109832763672 -1.32312655448913574 0.315643101930618286
-1.85091066360473633 0.685191154479980469 -0.488293558359146118
-8.46335887908935547 -1.07637870311737061 0.54399639368057251
-2.98566198348999023 0.559088587760925293 -0.811211884021759033
-2.65609931945800781 0.660598516464233398 -0.522852122783660889
-5.78734064102172852 -0.0483742579817771912 -0.691446602344512939
-2.3574070930480957 1.25193870067596436 -0.561331391334533691
-2.3554081916809082 -1.42469167709350586 0.884008467197418213
-4.32837104797363281 -0.896484732627868652 0.195413380861282349
-7.37486505508422852 0.413443028926849365 -0.762425005435943604
-6.04107666015625 -1.05172502994537354 -0.67269057035446167
-5.63951683044433594 -1.36840569972991943 0.525579392910003662
-3.03315234184265137 0.92919158935546875 -0.498565912246704102
-8.00940132141113281 0.176092520356178284 -0.3329448401927948
-7.21432065963745117 -1.33862674236297607 0.594175100326538086
-9.96193981170654297 1.19953012466430664 -0.919511318206787109
-2.68324995040893555 0.840769290924072266 -0.227559924125671387
-3.97781252861022949 -0.999654948711395264 1.17309486865997314
-3.81615233421325684 -0.906707465648651123 -0.655633985996246338
-6.33744001388549805 -1.06385195255279541 -0.488087773323059082
-5.44116735458374023 1.67667734622955322 0.43595084547996521
-3.33137106895446777 -1.08645844459533691 0.429182678461074829
-2.97154951095581055 1.73789596557617188 -0.403528124094009399
-7.23493766784667969 -1.3931572437286377 0.787848234176635742
-7.51042604446411133 -1.22826933860778809 -0.582852721214294434
-7.14304113388061523 0.965639889240264893 -0.890617072582244873
-5.09921360015869141 -0.0274395029991865158 -0.667255938053131104
-9.91140365600585938 1.05502808094024658 -0.953538000583648682
-9.32249546051025391 -1.54723739624023438 -0.706164181232452393
-2.79782748222351074 1.69721543788909912 -0.524793624877929688
-2.29937529563903809 0.605226218700408936 -0.633308887481689453
-6.54595088958740234 -1.15511119365692139 -0.529599368572235107
-9.14214038848876953 -1.50607049465179443 1.04127442836761475
-4.03847265243530273 -0.843194246292114258 0.714052200317382812
-5.22595119476318359 -1.00925922393798828 -0.250109732151031494
-6.7647404670715332 0.989586412906646729 -0.325920194387435913
-9.1696319580078125 -1.07385694980621338 -0.379233390092849731
-2.30863356590270996 1.40927398204803467 -0.143600404262542725
-5.76531553268432617 -1.17835235595703125 1.14388120174407959
-4.78070163726806641 -0.962630093097686768 -0.560963988304138184
-8.59506607055664062 -1.44007408618927002 0.266864985227584839
-8.65944576263427734 -1.35137569904327393 0.806830227375030518
-8.38605785369873047 -1.17301690578460693 0.642661571502685547
-1.91923832893371582 -1.07526922225952148 -0.561188817024230957
-6.85065460205078125 0.950840592384338379 -0.0937246978282928467
-2.32852339744567871 -1.31205344200134277 0.130221575498580933
-4.83224582672119141 0.106595605611801147 -0.080961957573890686
-2.17479300498962402 -1.16508758068084717 -0.794308960437774658
-2.15325832366943359 -1.30312693119049072 -0.456998884677886963
-5.43854570388793945 -0.017672806978225708 -0.609234988689422607
-5.71851301193237305 0.0411169193685054779 -0.658776342868804932
-2.3999016284942627 0.825106680393218994 -0.360988646745681763
-9.31741046905517578 -1.5692514181137085 -0.280747205018997192
-8.39687061309814453 -1.34490597248077393 0.246788948774337769
-7.04653072357177734 -1.0657268762588501 -0.243563562631607056
-1.95178568363189697 0.633115768432617188 -0.46760222315788269
-5.78034257888793945 0.795839548110961914 -0.751910805702209473
-7.96023416519165039 -1.07650935649871826 -0.947986185550689697
-8.96518707275390625 -1.08480548858642578 0.615749537944793701
-5.31873416900634766 -1.1631169319152832 -0.936935782432556152
-7.06884384155273438 0.424467891454696655 -0.388427883386611938
-9.81901073455810547 -0.0442924313247203827 -0.61455070972442627
-4.61849451065063477 0.27006945013999939 -0.592999279499053955
-6.11071109771728516 -1.0328984260559082 -0.880825459957122803
-8.390106201171875 -1.36247897148132324 0.738106608390808105
-5.88664531707763672 -1.35194826126098633 -0.519793272018432617
-5.86675119400024414 0.688109755516052246 -0.859175682067871094
-9.06915092468261719 -1.07312262058258057 0.998928189277648926
-5.50403404235839844 0.371119439601898193 -0.0839982777833938599
-2.58937335014343262 -1.01962089538574219 0.561152040958404541
-6.12162017822265625 -1.15824639797210693 -0.0993821397423744202
-2.58003711700439453 0.703159689903259277 -0.304014474153518677
-9.13830375671386719 -1.1939166784286499 -0.848390102386474609
-4.80733156204223633 0.186096832156181335 -0.163358569145202637
-7.9924464225769043 -1.25987040996551514 -0.330770611763000488
-2.17524290084838867 0.940738797187805176 -0.206668347120285034
-2.88637518882751465 1.46944546699523926 -0.476984947919845581
-2.76260209083557129 1.50750434398651123 -0.452391058206558228
-8.61899852752685547 -1.36219966411590576 0.254245132207870483
-2.63414788246154785 0.633628010749816895 -0.857823789119720459
-1.7552487850189209 -1.3904106616973877 -0.619168758392333984
-4.79589986801147461 0.0829375982284545898 0.0514819733798503876
-4.27996730804443359 -1.03397965431213379 0.409445405006408691
-3.74915003776550293 -1.11816370487213135 1.32272887229919434
-4.03493881225585938 -0.819738566875457764 0.361071169376373291
-8.53391170501708984 -1.11374926567077637 -0.590910255908966064
-7.70598936080932617 -0.0300874058157205582 -0.194628134369850159
-3.54575943946838379 -1.05831062793731689 -0.255633682012557983
-2.7880098819732666 -1.07742953300476074 -0.16016840934753418
-7.98877906799316406 -1.16726624965667725 -0.884217381477355957
-7.64575576782226562 -1.08256518840789795 -0.755565106868743896
-8.24045085906982422 -1.1362459659576416 -0.236988365650177002
-3.11464071273803711 1.58674263954162598 -0.950382411479949951
-3.30281257629394531 -1.17942333221435547 0.884441792964935303
-7.22648906707763672 -1.04691910743713379 -0.356075644493103027
-7.51974964141845703 -1.47161448001861572 -0.037032444030046463
-5.31183147430419922 0.46599578857421875 -0.32306826114654541
-3.36672806739807129 -1.12160730361938477 -0.912209928035736084
-3.54551362991333008 -1.00061357021331787 0.728146970272064209
-8.67479705810546875 -1.04286289215087891 0.041810307651758194
-2.99662160873413086 -1.06183803081512451 0.298785567283630371
-6.70465707778930664 1.00622129440307617 0.0163769293576478958
-9.21045494079589844 -1.05116045475006104 0.953104615211486816
-3.7331089973449707 -0.908741295337677002 -0.615841984748840332
-2.74115872383117676 1.41273772716522217 -0.216748699545860291
-4.06733322143554688 -0.877256572246551514 -0.303445130586624146
-6.71523809432983398 0.58405226469039917 -0.976408779621124268
-7.59200334548950195 -1.28388333320617676 -0.678707003593444824
-2.52112722396850586 -1.22597789764404297 0.604596138000488281
-8.92259597778320312 -1.20579218864440918 0.633966684341430664
-3.72037792205810547 -1.37748610973358154 1.11686480045318604
-3.64403009414672852 -1.0190272331237793 1.14615154266357422
-3.09486603736877441 -1.25620853900909424 0.185387596487998962
-2.98298168182373047 -1.08010780811309814 -0.928573966026306152
-5.56000089645385742 0.595300197601318359 -0.955773532390594482
-6.82210826873779297 -0.151379808783531189 -0.293394267559051514
-5.71771621704101562 -1.18658316135406494 0.271306812763214111
-8.37681484222412109 -1.63644492626190186 0.342389434576034546
-2.4400784969329834 1.23415815830230713 -0.589364945888519287
-3.50633096694946289 -1.10207045078277588 0.941097617149353027
-4.65771627426147461 0.204604431986808777 -0.809358477592468262
-7.58715057373046875 -1.02365982532501221 -0.820279300212860107
-5.73737573623657227 0.0299370959401130676 -0.162220582365989685
-6.29355382919311523 -0.999293684959411621 -0.0461565032601356506
-2.52322101593017578 -1.25288283824920654 0.532015621662139893
-7.80532360076904297 -0.167844682931900024 -0.0676161646842956543
-2.96492314338684082 1.1096348762512207 -0.346683979034423828
-2.11620163917541504 0.875908076763153076 -0.351204574108123779
-4.38891410827636719 -1.07970094680786133 1.13107550144195557
-4.10899686813354492 -0.866914212703704834 -0.0317445918917655945
-6.2605595588684082 0.573814451694488525 -0.705418944358825684
-6.71687650680541992 0.469918340444564819 -0.521585047245025635
-3.8409276008605957 -0.815900266170501709 -0.720200538635253906
-4.06374502182006836 -0.857365131378173828 0.275652468204498291
-7.02555751800537109 0.423654854297637939 -0.661651968955993652
-3.65139293670654297 -0.867192268371582031 0.425599366426467896
-7.28309154510498047 -1.50419878959655762 1.07594704627990723
-5.84030437469482422 -1.30168700218200684 0.75370258092880249
-7.11854648590087891 0.470079004764556885 -0.71718519926071167
-1.80694127082824707 -1.07698988914489746 -0.370365411043167114
-2.45099449157714844 -1.08122754096984863 -0.259059816598892212
-8.20006465911865234 -1.11498856544494629 -0.877599358558654785
-5.20599889755249023 0.399239808320999146 -0.850210666656494141
-5.50142526626586914 -1.00868439674377441 -0.37409326434135437
-4.46936750411987305 -1.44935405254364014 1.01234138011932373
-4.35187625885009766 -1.05976712703704834 -0.8228798508644104
-6.90453672409057617 0.830697596073150635 -0.213650822639465332
-4.62777900695800781 -1.07564592361450195 -0.633597433567047119
-4.91132354736328125 0.0419937670230865479 -0.732109367847442627
-8.99943923950195312 -1.18794691562652588 0.93381500244140625
-2.37587285041809082 -1.23126828670501709 -0.847984015941619873
-7.12515497207641602 0.862238645553588867 -0.251358360052108765
-8.91764450073242188 -1.08931481838226318 0.739230751991271973
-2.74260592460632324 0.733618199825286865 -0.166812881827354431
-9.82280349731445312 0.00827829167246818542 -0.474526822566986084
-5.68065786361694336 -0.999170541763305664 -0.0470157898962497711
-5.31272363662719727 -0.0132429962977766991 -0.256066471338272095
-2.86489367485046387 0.512050747871398926 -0.266696959733963013
-4.81047439575195312 0.245121210813522339 -0.369414985179901123
-2.8769986629486084 0.821614444255828857 -0.138284474611282349
-2.86366558074951172 1.28258347511291504 -0.172270014882087708
-9.55498886108398438 1.02562212944030762 -0.58360588550567627
-6.20702457427978516 0.453752845525741577 -0.208870828151702881
-10.2781171798706055 0.415352553129196167 -0.94325178861618042
-7.05210065841674805 -0.127163022756576538 -0.202177390456199646
-5.72367715835571289 -1.17410182952880859 1.02682232856750488
-3.64679455757141113 -1.12902224063873291 1.30808174610137939
-9.89046955108642578 0.518109440803527832 -0.81058347225189209
-1.73391413688659668 -1.43453264236450195 -0.51039886474609375
-7.1054224967956543 -1.01514899730682373 -0.372754722833633423
-4.35912036895751953 -1.03487992286682129 0.571189939975738525
-1.88423788547515869 0.766488254070281982 -0.31501421332359314
-2.98008155822753906 -1.07726967334747314 0.578047990798950195
-5.51557779312133789 -0.964704453945159912 -0.333036750555038452
-6.91312551498413086 0.882072687149047852 -0.123485155403614044
-8.47771644592285156 -1.12387418746948242 0.199844002723693848
-2.77440834045410156 0.98811638355255127 -0.398517757654190063
-1.95282292366027832 1.33730733394622803 -0.505403757095336914
-3.09687399864196777 1.07282054424285889 -0.904624640941619873
-7.04262399673461914 0.832568705081939697 -0.897046208381652832
-3.1400296688079834 -1.1266855001449585 -0.373675823211669922
-6.25067281723022461 -1.35542595386505127 -0.0390968583524227142
-3.10586857795715332 -1.05472183227539062 0.43179786205291748
-7.71367311477661133 -1.02324116230010986 -0.160046830773353577
-9.10713863372802734 -1.08513092994689941 -0.941315352916717529
-2.47078895568847656 1.40377438068389893 -0.704124569892883301
-9.18589019775390625 -1.12608718872070312 -0.790981531143188477
-6.41820621490478516 0.00727285584434866905 -0.26845201849937439
-5.63720464706420898 -1.05561733245849609 -0.162354916334152222
-7.13204669952392578 -0.159887433052062988 -0.539976179599761963
-4.64032745361328125 0.255324870347976685 -0.261414974927902222
-4.73487567901611328 0.148246705532073975 -0.837279140949249268
-4.74098539352416992 -0.0452592819929122925 -0.256987392902374268
-2.03374505043029785 0.738387823104858398 -0.46122315526008606
-7.21384906768798828 -1.28147792816162109 1.01043367385864258
-6.97111749649047852 -1.12874007225036621 -0.598051667213439941
-2.38302206993103027 1.2080235481262207 -0.718785881996154785
-8.50716686248779297 -1.2280271053314209 1.10122239589691162
-9.30788898468017578 -1.60015571117401123 0.235949248075485229
-9.95117855072021484 0.198140054941177368 -0.824730575084686279
-8.37800788879394531 -1.12471771240234375 0.314282268285751343
-7.06765508651733398 0.544811725616455078 -0.0891880393028259277
-2.56880664825439453 -1.24119997024536133 0.137686237692832947
-2.61423063278198242 -1.06763696670532227 0.242141231894493103
-6.56304311752319336 -0.119711481034755707 -0.396866828203201294
-6.04791975021362305 -1.18465697765350342 -0.519634842872619629
